# .PCD v0.7 - Point Cloud Data file format
VERSION 0.7
FIELDS x y z intensity
SIZE 4 4 4 4
TYPE F F F F
COUNT 1 1 1 1
WIDTH 1334
HEIGHT 1
VIEWPOINT 0 0 0 1 0 0 0
POINTS 1334
DATA ascii
-4.29245 0.18104826 13.67721 8.5
-3.9505455 0.14199604 13.647306 7
-12.224948 0.26892945 13.756184 10.75
-12.197744 0.20230067 13.627354 10.5
-9.4140425 0.26160678 13.694268 11.833333
-9.3820887 0.3229636 13.701026 13
-4.306253 0.29398531 13.720686 9.125
0.85963917 0.216299 13.740774 7
-4.60812 0.40726203 13.642766 9.5
-4.2985702 0.45850983 13.716983 10.9
-4.6138988 0.64844775 13.643539 11
-2.0891976 0.72565347 13.677663 11
0.64143181 1.0470752 13.758023 9
0.58829308 1.6977512 13.774195 11
0.61785078 1.7262385 13.758763 11
-18.605961 1.8534886 13.682862 13
-18.536636 1.85461 13.658356 13
-18.17141 1.9042065 13.69426 13
-17.457737 1.8619251 13.723351 15
-14.881289 2.0309186 13.781629 13
-10.029311 2.1646152 13.748158 13
0.5920043 2.060812 13.724566 12
0.60958529 2.0588012 13.672119 15
-7.9674807 2.3571982 13.759394 15
0.56719398 2.3764889 13.783007 13
-12.24547 -0.092322603 13.836171 7
-12.06447 -0.064517222 13.850134 7
-9.4023781 -0.08598949 13.866264 8
-12.192963 0.034006864 13.961443 8.5
-9.4128246 0.12509911 13.89307 10.75
-9.395525 0.19834585 13.97538 10
-12.202038 0.25339794 13.953356 10.5
-12.195089 0.23910007 13.972383 10.5
-9.4099302 0.32716039 13.862796 12
-9.3911705 0.38967654 13.840513 14
-4.3217278 0.27740335 13.911473 9.333333
-4.3156414 0.49720725 13.920211 12
-19.315426 0.72825217 13.980867 10
-2.0939143 0.78109288 13.975343 11
-19.332506 1.0752012 13.980781 11
-2.1220078 1.0900601 13.958238 12
-19.322989 1.3366228 13.96836 12
-2.1360426 1.2778528 13.956807 13
0.58597481 1.3023736 13.954451 13.5
-19.287786 1.5679868 13.93387 13
-2.1382663 1.5079873 13.973355 14
-19.312868 1.6166776 13.961919 12.833333
0.5850482 1.7897691 13.963659 14
-18.542423 1.9235997 13.888806 14
-18.045166 1.9358202 13.805208 12
-17.852856 1.9419101 13.852701 15
-15.590031 2.0335379 13.925026 13
-15.158257 2.0360136 13.97687 14
-11.109094 2.0370522 13.829097 15
0.58252287 2.0147517 13.959421 15
-9.4253235 2.2801113 13.920769 14.5
-8.1307259 2.326462 13.923384 14
-2.2796113 2.3573537 13.843807 14
-6.7234893 2.4347506 13.948299 14
-4.675292 2.5286846 13.981076 14
-4.4696341 2.5387375 13.891281 14
-2.4027352 2.4116423 13.944517 13
-2.2775979 2.4223492 13.920967 13
0.4874227 2.4443228 13.973153 13
-12.206356 -0.02190312 14.055008 8
-12.20772 0.19553319 14.056043 9.5
-12.192603 0.042722397 14.113985 8.25
-9.4151154 0.10196804 14.069338 10.875
-9.3980322 0.053131707 14.057739 8.5
-8.3054647 0.14537199 14.187481 8.5
-4.2869434 0.19360654 14.083097 8.5
-12.211494 0.26966998 14.129899 10.5
-12.160847 0.31674027 14.054792 11
-9.4099226 0.29918388 14.058911 12
-8.6218491 0.24467234 14.177416 10
-2.13133 0.32806432 14.004003 9
0.59854269 0.37294078 14.067539 8
-9.4099779 0.41112986 14.098071 12.5
-4.2960839 0.49715385 14.087059 11.666667
-2.097363 0.51407099 14.038131 10
-2.1070945 0.67335385 14.02556 13
-2.1023896 0.93416101 14.103406 10.25
-2.1117563 1.111806 14.114717 11
-2.2262502 1.357249 14.132027 10
-2.0996141 1.3194883 14.088776 11.333333
-19.303703 1.5760324 14.023668 13
-2.1292496 1.4787631 14.068295 13
0.58400774 1.4745448 14.059246 14
0.60870898 1.4313328 14.116343 10
-19.304379 1.6326227 14.063323 12.5
-2.2389994 1.7223477 14.125273 11
-2.1140325 1.7043687 14.090469 12.5
0.57494164 1.6170663 14.008286 14
-18.601824 1.8615806 14.009851 13
-18.598665 1.8582252 14.051432 13
-18.213848 1.8992633 14.138504 13
-17.848797 1.9383358 14.163735 15
-16.818039 1.9327061 14.177526 14
-2.3061328 1.9668329 14.184206 14.5
-2.1433599 1.836465 14.063146 14.666667
-15.594296 2.0311453 14.080059 13
-13.530376 2.0801275 14.018168 14
-2.2425883 2.0985115 14.122471 13
-2.1096213 2.0742848 14.065484 12.666667
-6.1085744 2.4705501 14.131785 14
-5.3154659 2.4932511 14.030423 14
-1.5880293 2.5384891 14.065207 13
-0.46941677 2.5743444 14.099643 13
-1.461041 2.6441586 14.139624 14
-12.194228 -0.11376791 14.301691 7
-12.21378 0.074050605 14.303761 8.5
-9.4175911 0.12231835 14.386474 9.833333
-9.3841724 0.13019754 14.308064 8.666667
-9.1513042 0.099356577 14.29538 8
-8.694272 0.10409407 14.314314 8.4375
-8.5206852 0.15019831 14.315541 8.6000004
-8.3783302 0.11843718 14.356218 8.5
-4.3570366 0.19693241 14.357481 7
-12.21595 0.25925952 14.264717 10.5
-12.176128 0.28391516 14.250235 11
-9.412734 0.30260807 14.322686 10.944446
-9.393898 0.28285852 14.371253 9.5
-9.1942501 0.26274884 14.345182 8.5
-8.6889448 0.29654717 14.311934 10
-8.34272 0.21456432 14.399857 10
-4.3157973 0.24230459 14.236786 8.666667
-2.2684474 0.33273479 14.271637 8.818182
-2.0427175 0.28220072 14.316816 8
0.66855407 0.35615784 14.298001 7
-9.4323082 0.42850029 14.370382 13
-9.3035736 0.4175629 14.294724 10.25
-4.3209367 0.5144521 14.229636 12.5
-2.2745001 0.50779051 14.260882 11
-2.2775285 0.67119628 14.239941 12.583333
-2.2824669 0.90575272 14.246606 12.181818
-2.2902663 1.1266979 14.228971 12.785714
-1.1252946 1.0751946 14.389417 9
-2.2906978 1.3134329 14.234433 12
-1.9622397 1.3654646 14.378603 10
-1.0813581 1.2891879 14.388741 9.333333
-2.3052206 1.5039313 14.244473 13.25
-1.0884053 1.4714938 14.385263 10
-2.0488546 1.6974844 14.396638 10
-1.9752806 1.7141469 14.374078 11
-1.4317987 1.6185521 14.371065 10
-1.1153312 1.702902 14.387447 10.5
0.67086411 1.670693 14.355215 13
-18.184366 1.9589249 14.298689 14
-17.975634 1.9742712 14.322749 15
-16.985054 1.9700044 14.361816 14
-2.3039947 1.8378072 14.244889 14
-1.2088495 1.8396103 14.391021 11
-1.14252 1.8424138 14.386765 10.5
0.6351468 1.8554425 14.375906 12.5
-10.040577 2.1862471 14.268925 13
-2.0215688 2.0701842 14.344187 12
-1.1574056 2.111315 14.378674 11
0.64111423 2.1465621 14.369001 15
-10.099721 2.2036638 14.328173 13
-9.4380426 2.2602615 14.295753 15
-8.0639944 2.3934422 14.329065 14
-2.3413281 2.2540882 14.322628 15
-1.9182017 2.3529027 14.358782 13
-1.2008545 2.3281014 14.391174 13
-1.1763881 2.2902842 14.377344 12
-12.209076 -0.0076902728 14.532009 8
-12.195153 -0.0015574992 14.580915 9
-12.213169 0.10357404 14.534319 9
-12.18277 0.071132638 14.552293 9
-9.4190655 0.075253829 14.509923 8.708334
-9.1139717 0.092971183 14.445726 7
-12.215847 0.24759668 14.531735 10.333333
-12.186358 0.23342884 14.522572 10.5
-9.4200954 0.29097447 14.475855 10.2
-9.3943434 0.2808556 14.532743 9.5
-4.4603605 0.20902783 14.56588 8
-4.3439989 0.28885368 14.526607 8.6999998
-4.1119757 0.2063525 14.564696 7
-2.2754726 0.33721551 14.490415 9.2142859
-2.0937529 0.30914465 14.533168 8.7051277
-1.9439117 0.30436155 14.569486 8.9011908
-1.7215502 0.20546663 14.577648 7
-1.1346141 0.33614832 14.561513 8.75
-0.9693743 0.27423131 14.594576 7
-0.77752697 0.23502271 14.54933 7
0.83851719 0.31352121 14.465878 7
-9.4252834 0.43332443 14.412252 11
-4.4082003 0.4271858 14.525696 9.5
-4.3496366 0.49112999 14.527084 12.027778
-2.2745786 0.48587698 14.494008 11.444445
-2.125072 0.49635661 14.539913 10.966665
-1.9748067 0.48152706 14.569035 11.027778
-1.1434096 0.5261628 14.554151 10.863636
-2.292448 0.73778462 14.474758 12.333333
-2.0951695 0.69383836 14.515246 11.5
-1.9116547 0.69299561 14.523464 10.124243
-1.7435652 0.71953052 14.491515 7.7142859
-1.4879481 0.73355508 14.434092 8
-1.2946682 0.70699888 14.519788 7.5
-1.138221 0.69634557 14.515876 10.636364
-2.2905173 0.91693908 14.472547 11.6
-2.0809031 0.89411557 14.549974 11.611111
-1.9645475 0.92169881 14.574266 11.625
-1.7011552 0.83511794 14.502393 8
-1.1403047 0.90127337 14.523668 11.15
-19.293272 1.037467 14.566269 10
-2.2905426 1.103423 14.464146 12.111111
-2.0506005 1.1149424 14.535381 12.240742
-1.8712044 1.081611 14.503049 9.8000002
-1.7382956 1.1528138 14.486294 9
-1.4999285 1.0814826 14.489358 9
-1.2358875 1.0313572 14.510913 9
-1.1360261 1.1146694 14.507395 11.5
-2.3003063 1.2826132 14.460562 12.571428
-2.0451069 1.3088169 14.568255 13.333333
-1.8890527 1.3036308 14.507571 10.333333
-1.6602476 1.3305969 14.52182 10.5
-1.4624622 1.3936656 14.504597 10
-1.3071126 1.2948222 14.476719 9.333333
-1.1276194 1.2993827 14.487522 11
-2.2977242 1.5029076 14.457414 13.142858
-2.0243516 1.5234754 14.558749 13.2
-1.7185466 1.4511557 14.498822 10.4
-1.3499389 1.5596328 14.469572 10
-1.1628491 1.5068467 14.558604 13.5
-0.99112535 1.4133527 14.448629 10
-2.306318 1.714962 14.445994 13.333333
-2.02899 1.7309128 14.547853 13.333333
-1.8320711 1.6812096 14.465137 10
-1.7149359 1.7134812 14.469752 10.8
-1.4404668 1.6414161 14.402752 11
-1.3157967 1.7204262 14.478933 10.714286
-1.0811887 1.7259977 14.470734 11.25
-17.711678 1.9707943 14.438749 15
-2.3070517 1.8833927 14.451546 14.5
-2.0276349 1.8919736 14.546147 14.333333
-1.8679271 1.8855619 14.468121 11.25
-1.6873488 1.8059756 14.570835 13
-1.5658269 1.9622767 14.45908 11
-1.3330066 1.9455813 14.479856 11
-1.165031 1.8972149 14.553554 14.5
0.54235649 1.9317474 14.524672 13
-16.81625 2.0036914 14.503977 15
-9.4426765 2.1791291 14.479254 15
-9.3628969 2.155031 14.483348 15
-2.3194833 2.0053704 14.443232 14
-2.0563116 2.0707269 14.532827 14.5
-1.89338 2.0419395 14.462799 12
-1.6954961 2.1046615 14.443241 11.75
-1.5150268 2.0728648 14.466547 11.5
-1.342823 2.0884488 14.478469 11.714286
0.58396971 2.157773 14.428448 12
-9.4484282 2.3331127 14.4275 14
-2.0617051 2.2123358 14.406729 11
-1.8149062 2.2102416 14.455499 11.666667
-1.6450319 2.2008533 14.488108 11
-1.3630922 2.2260253 14.494633 12
-0.85284209 2.360359 14.578189 14.5
0.45355809 2.5262415 14.547903 13
-12.221592 0.051738504 14.695328 8.5
-5.1865129 0.199938 14.672991 7
-4.5033259 0.18959466 14.667648 7
-12.243836 0.29500753 14.718794 10.375
-9.4378672 0.32855472 14.698036 12.4
-5.2746181 0.26938689 14.758606 9
-4.4157701 0.34369004 14.779375 9
-4.3622942 0.30178478 14.674055 8.25
-4.0414085 0.25349838 14.789306 7
-2.0094035 0.33123505 14.627098 8
-1.9210379 0.32046288 14.640524 8.125
-1.6698178 0.27477759 14.66696 7
-1.1368496 0.35142273 14.640091 8.75
-0.87692219 0.32786772 14.648435 7
0.65242672 0.352038 14.659721 7
-9.4679632 0.43265182 14.675898 12.4
-4.4246664 0.51979077 14.710234 10.666666
-4.3759093 0.50043243 14.653862 11
-2.0009589 0.58050323 14.601488 11.5
-1.9519768 0.50338745 14.626554 9.9666662
-1.1565058 0.50751203 14.638535 10.030303
-19.324718 0.74229276 14.657223 10
-1.9471864 0.6956923 14.62816 10.5
-1.3381457 0.61586028 14.619474 7
-1.1586183 0.68373173 14.615148 10.214286
0.6074658 0.79070985 14.714283 8
-19.31884 0.9317584 14.644907 11
-1.9452403 0.91482151 14.624924 11.7
-1.5851052 0.94764471 14.617432 12
-1.1581848 0.87047023 14.624954 11.5
-1.9735008 1.1463003 14.615687 13
-1.612025 1.0660766 14.60695 12
-1.1484746 1.018716 14.620866 12
0.59617454 1.1372192 14.719063 9
0.6168884 1.1459098 14.737364 9
-19.274755 1.3106909 14.601394 12
-2.0101094 1.3892593 14.618204 12
-1.1574018 1.2817951 14.624545 13.333333
-1.1653668 1.5082688 14.616614 13.5
-2.0269604 1.6357251 14.613348 13
-18.625004 1.9428291 14.705883 14
-17.416473 1.9795111 14.651771 15
-2.0179529 1.8922609 14.625556 14
0.56506181 1.9122112 14.711414 13
-15.196034 2.0317819 14.725826 15
-13.22965 2.1026065 14.795998 14
-2.1702862 2.0961595 14.78509 15
-0.45653677 2.1829307 14.762714 15
0.56485003 2.1953444 14.743345 12
-0.65972328 2.3561153 14.637287 14
0.42264414 2.3649683 14.693206 15
-2.340045 2.5341096 14.600513 13
0.44544703 2.545471 14.733456 13
-12.285467 0.11755428 14.861172 8
-9.4452009 0.098768234 14.831822 9.9333334
-4.9448614 0.18936849 14.864212 7
-4.3379726 0.14633259 14.877286 7
-12.234151 0.29440379 14.893528 11
-9.4492073 0.36911294 14.859619 13.5
-5.3693471 0.25165653 14.803619 9
-5.0894728 0.24815255 14.860988 8.25
-4.4665861 0.29279143 14.878878 8.5
-4.3522196 0.29785585 14.891969 8.875
0.45400056 0.37825555 14.948387 8.1999998
0.81391525 0.24785274 14.851446 8
-4.4358749 0.47838032 14.907679 9.25
-4.3688993 0.5102843 14.909819 12.366667
0.47406769 0.5216341 14.956149 9.375
0.46988991 0.70766342 14.955849 10
0.8213346 0.60240561 14.842418 10
-19.302357 0.98222691 14.939266 11
-1.8438921 0.86640275 14.836522 7
0.46557441 0.87981951 14.942483 11.846154
0.87735558 0.8847115 14.841259 12.25
0.4728201 1.0955371 14.942435 12.272727
0.45480689 1.2876713 14.948253 12.5
0.45407644 1.4857138 14.931342 12.222222
0.44771042 1.7026609 14.957904 12.4
-18.64448 1.9547759 14.880048 14
-17.871586 1.9904128 14.979192 15
0.45763922 1.8997457 14.94211 12
-15.795782 2.0088003 14.835049 15
-10.045757 2.1847713 14.840751 15
0.42386261 2.1091263 14.907243 13.666667
0.39372206 2.2271938 14.876622 15
0.49642009 2.2213883 14.868193 13.5
-3.5032656 2.4942083 14.88705 13
-3.3643599 2.4890246 14.900074 13
-12.249994 0.056809206 15.106619 8.5
-10.175698 0.1570842 15.016054 10
-9.4505615 0.13932937 15.111336 9.333333
-8.2759647 0.11370739 15.056487 9
-4.602303 0.18276268 15.059768 7
-12.253703 0.26884943 15.09761 10.625
-9.4624729 0.31277841 15.113199 12.1
-8.2864103 0.26558337 15.042047 10.5
-4.4619093 0.21630484 15.139608 8
-4.3316784 0.22431195 15.150458 7.75
-4.0881457 0.25622272 15.1291 7
-9.4516363 0.41030255 15.021126 14
-4.4066854 0.49426529 15.170074 9
-4.3543663 0.49318513 15.060493 13.083333
0.47913778 0.47332567 15.026476 8
0.68767047 0.47958168 15.025788 7
-19.302206 0.62700605 15.089975 10
0.47165632 0.66048157 15.017275 9
0.48213515 0.87570041 15.042616 9.8571424
0.47944322 1.1017089 15.075559 11
0.47289118 1.3077956 15.071015 12
0.45944768 1.4871047 15.035892 11.6
0.4931078 1.600512 15.174806 13
-18.400486 1.9144117 15.166266 13
0.43389258 1.8877422 15.095644 13.285714
-12.755463 2.1356485 15.069869 15
-10.065228 2.180037 15.147846 15
0.43521944 2.0799582 15.132417 14.666667
-10.076199 2.2830892 15.180048 14
-9.5165834 2.3247321 15.11555 13
-8.4267883 2.3615372 15.175682 14
-0.77352428 2.3255563 15.08459 14
0.44162703 2.2497005 15.169968 12
-3.367986 2.5124865 15.02441 13
-12.290579 0.020902373 15.348306 8
-9.4542131 0.11777685 15.289924 9.181818
-8.5126553 0.14324175 15.313983 8.6000004
-4.3366227 0.19165219 15.251326 8
-19.356667 0.33054543 15.352064 9
-12.259333 0.29211324 15.297201 10.6
-9.4651604 0.31720817 15.295691 11.444445
-8.6785402 0.29464972 15.395417 10.5
-8.5742311 0.28982639 15.331252 10
-4.614893 0.23877046 15.39193 8
-4.4343438 0.28810668 15.32838 8.2142859
-4.3686004 0.31546423 15.281677 9.333333
-4.0766287 0.26025474 15.342177 7
-3.8605123 0.33219248 15.39086 10
-9.4515972 0.43188509 15.332176 11
-4.4276843 0.49256822 15.3182 10.181818
-4.3764277 0.53886974 15.319498 13.25
0.53019619 0.5194453 15.209987 8
0.70277667 0.48479605 15.298989 7
-19.3582 0.67225146 15.339485 10
0.52320528 0.73272735 15.203163 9
-19.38945 0.99743426 15.359029 11
-19.416351 1.0692363 15.380965 11
-19.417065 1.3671958 15.359455 12
-19.421207 1.5996919 15.362734 13
-19.338814 1.5047379 15.272772 12
-19.415779 1.6862136 15.363715 13
-19.331745 1.6906897 15.282813 12.714286
0.39310741 1.7770513 15.357216 13
0.41640687 1.7341744 15.323565 12.5
-18.628258 1.9737223 15.327075 14
-18.136822 1.9988161 15.257797 15
0.43715525 1.8521714 15.2458 12
-17.868114 2.0061088 15.369671 15
-13.17283 2.1119959 15.226604 14
-11.429383 2.0502582 15.277009 15
-10.995 2.0128562 15.240235 15
-10.09963 2.0344441 15.396585 15
-2.439496 2.1899095 15.26597 15
-0.46667194 2.1759937 15.241844 14
-9.072773 2.3578105 15.223612 13
-8.8793755 2.3732171 15.351028 13
-8.504221 2.3852329 15.392052 13
-2.3818531 2.2240362 15.204371 15
-0.75414085 2.3918779 15.367996 14
-0.48057032 2.2824528 15.312475 15
-12.397573 -0.058491718 15.571863 7
-12.290846 0.11064301 15.427451 8.75
-9.4693327 0.15479453 15.538031 10
-4.3721857 0.18001589 15.599816 7
-19.327291 0.25768876 15.584076 9
-12.279393 0.3017582 15.490069 10.666667
-8.8408422 0.25631368 15.491014 10.5
-4.550169 0.31998864 15.440874 9
-4.3673348 0.30894491 15.548431 10.666667
-9.4026623 0.4215281 15.410165 10
-4.5160975 0.49671468 15.495571 11.666667
-4.3816242 0.40630817 15.569546 13.5
-3.8355074 0.41732472 15.436501 12
0.5003252 0.44805327 15.510103 7
0.49415529 1.1423186 15.458681 9
0.46248055 1.2990353 15.474222 10
0.42740107 1.5749757 15.491296 12
0.4270792 1.6100463 15.594874 12
-18.033207 2.0120277 15.452606 15
-11.592083 2.1182005 15.47723 12
-10.066066 2.1822679 15.441504 15
0.46538639 2.038048 15.402931 15
-10.060432 2.2803533 15.570395 13.5
-8.0005722 2.331491 15.551922 14
0.40181065 2.2863128 15.419161 12
-3.9281421 2.581125 15.559334 13
0.38882327 2.6837313 15.424711 13
-19.476788 -0.051273778 15.743389 8
-19.411991 0.013991058 15.671449 8
-12.292704 0.038309656 15.743858 8
-9.5049171 0.048137743 15.761539 9.25
-12.263088 0.31865865 15.666952 10.25
-9.5049934 0.31355461 15.758809 12.833333
-4.39081 0.31006017 15.753112 9.5
-3.8477364 0.29198349 15.720876 9.5
1.4320326 0.27303421 15.751812 8
-4.4685392 0.51202923 15.713582 11.944444
-4.3856373 0.43978471 15.652514 13
-3.8679309 0.48249164 15.679766 13.25
0.310009 0.43304855 15.627469 7
0.43655396 0.73615444 15.726858 9
1.3867517 0.8100819 15.749765 11
0.452075 1.0554744 15.704273 9.666667
1.4042697 1.0210432 15.744564 12.5
-19.394543 1.2627107 15.604721 12
0.42341948 1.2724552 15.659307 11
0.42369986 1.4923735 15.664318 11.5
-19.398685 1.667737 15.668944 13
-19.457954 1.9115341 15.780194 13
-18.673111 1.9465007 15.710922 14
-18.077948 1.9821911 15.735622 15
-18.160011 2.0139613 15.682758 15
-11.035257 2.060781 15.733463 15
-10.11306 2.1892533 15.783016 14
-10.080209 2.2824879 15.607962 13
-8.78269 2.2068782 15.764746 14
-8.1232071 2.2994838 15.677149 13.5
-2.4095473 2.2055573 15.608314 15
0.43015379 2.3588948 15.69953 12
-5.0170798 2.5436547 15.795518 13
-12.305861 -0.011820786 15.950138 8.5
-12.284333 0.080101199 15.945096 8.772727
-12.289284 0.28721857 15.936814 10.352942
-4.6668983 0.27810985 15.850193 8
-4.3858376 0.33821347 15.868407 11
-4.1630287 0.20843005 15.84855 7
-4.6774764 0.46571848 15.86336 9.333333
-4.4206533 0.50718921 15.890433 13.125
-4.3982244 0.42451537 15.880731 13.5
0.48431745 0.48538598 15.858414 7.6666665
1.4803672 0.41548681 15.936866 9
0.43193007 0.7272594 15.895374 9
0.4297533 0.83756936 15.895226 9
1.520344 0.90967333 15.979688 11.5
0.43106207 1.0603141 15.877879 10
0.43939373 1.288758 15.942436 10.25
0.44584489 1.5732166 15.998009 10
0.45885456 1.6285768 15.965841 10
-17.646236 1.9058709 15.813272 15
-17.543646 1.9139926 15.813416 15
0.43257821 1.9678005 15.993355 11
-10.155573 2.0912762 15.90391 15
0.44364807 2.0211244 15.984799 11
-7.7903681 2.2658391 15.980206 14
-8.1953382 2.4123974 15.991621 13
0.4221853 2.4161868 15.918501 12
0.41718364 2.8354397 15.979893 13
0.40162265 3.2517862 15.982325 14
-9.4706202 0.088839829 16.052521 8.8125
-9.3260975 0.12010867 16.0958 9
-9.1703377 0.17500371 16.101921 9.5
-8.8779211 0.15492004 16.130161 9.4375
-8.6713114 0.17749542 16.137775 9
-8.5137253 0.15396479 16.141903 10
-8.3050652 0.17118703 16.16007 9
-8.1104498 0.16952012 16.143845 8.9722223
-5.9616203 0.12422793 16.193007 7
-5.7260895 0.17289048 16.144936 7.3333335
-5.0655417 0.18800478 16.112547 7
-9.467308 0.29022017 16.05435 11.227273
-9.237483 0.39840704 16.090618 13.5
-9.139307 0.30807 16.098743 11.9
-8.8691034 0.36384356 16.107637 12.5
-8.7710533 0.31869975 16.122955 12.5
-8.5278664 0.3378244 16.126202 13.5
-8.369626 0.31114703 16.151569 10.75
-8.1123114 0.32563627 16.141548 11.0625
-5.5807581 0.23636979 16.18849 8.5
-4.8895268 0.22289014 16.139124 7
-4.3027391 0.25272745 16.175213 7
-2.309371 0.32326284 16.154198 7
-1.4430075 0.30855989 16.106419 9.5
-8.6659813 0.43815669 16.129471 12.25
-8.485302 0.43126208 16.140564 13.75
-8.3839722 0.48096541 16.155085 13.5
-8.1120481 0.44262162 16.149714 11.7
-4.4438977 0.4594847 16.125446 13.5
1.5292869 0.5596745 16.017578 10
0.48092771 0.79073298 16.039732 8
0.49122301 0.84041703 16.026903 8
1.5851421 1.0024602 16.176445 12
0.37627435 1.3209717 16.190742 13.5
0.44305488 1.2551179 16.015749 9.5
-19.443073 1.5527723 16.076363 12
0.33859158 1.4462721 16.184292 13
-19.430828 1.6969788 16.114033 13
-18.686041 1.958715 16.12253 14
-11.50303 2.1611595 16.178341 12
0.36540842 2.1420333 16.092968 15
-10.090092 2.2697663 16.062199 13.5
-2.3536761 2.3909361 16.050526 12
-0.5334177 2.258054 16.191305 15
0.36313748 2.3146737 16.12957 15
-2.5149982 2.4042201 16.078123 12
-5.4998903 0.1477526 16.239241 7
-5.8386607 0.28303093 16.246128 9.4285717
-5.7214379 0.32106081 16.271008 9.7142859
-5.4378023 0.32046944 16.287167 10.5
-5.3516669 0.25896043 16.292187 8.5
-5.1400237 0.3103503 16.301155 9.666667
-4.9523873 0.29203248 16.316563 8.9333334
-4.7012663 0.33164865 16.325113 9.875
-4.4556422 0.29613748 16.316124 8.9761906
-4.3643084 0.28486162 16.303598 8.75
-2.4557939 0.33142942 16.370811 8.25
-2.270478 0.33263761 16.377602 8.3000002
-2.1928158 0.3611812 16.275057 7
-1.5950823 0.26103401 16.230789 8.25
0.35998559 0.33259854 16.268618 8
0.55081654 0.34072798 16.292007 7
1.4683805 0.28656778 16.306767 8
-5.8568745 0.45525169 16.248404 11.1
-5.7074904 0.46613631 16.269913 12.041666
-5.5284328 0.462686 16.277443 13.25
-5.3176026 0.51445454 16.279922 12.916667
-5.0847282 0.49943802 16.294285 12.125
-4.8967123 0.50706625 16.297068 13.375
-4.7104115 0.51166838 16.314445 12.5
-4.4764271 0.50809342 16.309559 11.6
-2.2775559 0.53603065 16.374063 11.833334
-1.5587004 0.4036333 16.275303 12
0.38529959 0.46277499 16.259417 8.833333
0.4474442 0.49707851 16.219929 9.166666
1.4608471 0.49389073 16.312729 9.5
-2.2383075 0.67322868 16.363321 13
0.37997061 0.67155838 16.247068 10.25
0.44962823 0.65062511 16.261345 9.75
-2.3994827 0.82912111 16.375372 11
0.37095153 0.90101618 16.244696 12.136364
0.47565222 0.82843918 16.241154 11
1.4897585 0.91911101 16.317585 11.5
1.6008463 0.86049807 16.224106 11
-2.4144373 1.1801829 16.396103 13
-2.3880801 1.0227568 16.394318 11
0.36031771 1.0467094 16.276117 12
0.46279621 1.1263921 16.293524 14
1.505023 1.1366938 16.286007 13
-2.4134612 1.2682015 16.389019 13.833333
-2.3843641 1.2262717 16.389547 11
0.34985295 1.2425166 16.237852 12.666667
-19.444668 1.5115335 16.297626 12
-2.4171238 1.5194001 16.363413 12
-2.2958033 1.5760359 16.307428 10
-2.121321 1.5708673 16.304661 10
0.34012818 1.4001484 16.247713 14
-2.4135013 1.7343339 16.392174 13.5
-19.443626 1.88984 16.24494 13
-2.4285059 1.8953514 16.385267 14
-18.687664 2.0021243 16.332115 14
-2.4219251 2.0259399 16.351194 12.5
-2.3112886 2.003921 16.292351 11
-2.1392348 2.0088253 16.289597 11
-0.53536892 2.117439 16.231228 15
-9.3920355 2.22732 16.34586 15
-7.9661903 2.2728934 16.379078 14
-2.4280457 2.3074548 16.318575 15
-0.73251963 2.3783615 16.220039 15
-7.9849691 0.28169551 16.579716 12.25
-7.728354 0.28179488 16.546288 11.25
-3.4429371 0.2967982 16.577055 9.5
-2.4328613 0.35308757 16.492153 8.3999996
-2.3374541 0.36702171 16.467329 8.1999998
-2.0733552 0.38915011 16.459705 8
-1.9796467 0.34635061 16.497974 7
-1.2508709 0.30340582 16.562841 8.5
-1.1375268 0.35426939 16.523933 9.25
-2.4111919 0.52721781 16.434711 10
-2.3733971 0.48896667 16.443747 9.1000004
-1.2265321 0.47012603 16.532038 11.6
-1.1395936 0.52033287 16.532442 12.5
-2.4085312 0.68070167 16.438276 11.1875
-2.3890829 0.68044972 16.427889 9.7307692
-2.4112952 0.90766162 16.430758 12.227273
-2.3884223 0.90311551 16.428226 10.388889
0.50797248 0.84020919 16.416622 12
-2.4160228 1.0835513 16.440254 12.5
-2.3904703 1.1459419 16.425058 11
-2.4148908 1.2892387 16.419735 12.75
-2.3891006 1.2958081 16.417816 11.5
-19.45643 1.5382315 16.552467 12
-2.4195492 1.4479157 16.420334 13
0.52773976 1.5550935 16.583376 14
-2.418798 1.6797909 16.430187 13.2
-2.4247675 1.9336957 16.416355 14.25
-13.244016 2.1314578 16.530249 14
-11.481408 2.0519581 16.472502 14.5
-11.25448 2.0447176 16.412865 14
-11.100775 2.074111 16.464056 14
-10.16008 2.0929775 16.470684 15
-2.4348702 2.1139302 16.41477 15
-9.4982138 2.248805 16.517273 14
-19.540201 -0.029907398 16.773182 8
-9.2948666 0.1663124 16.728024 9
-9.7079735 0.24177244 16.738771 11
-7.6843414 0.34490272 16.732489 13
-4.9647951 0.32627147 16.768459 9.333334
-2.4303086 0.3433983 16.693535 8.6111107
-2.2848759 0.35432521 16.711504 8.083333
-2.1035111 0.36509115 16.703552 7.25
-1.8956246 0.38360727 16.654573 7
0.35780263 0.34410751 16.619818 8
1.6276321 0.22824545 16.69556 7.5
-2.4250126 0.51439852 16.685104 10.607142
-2.3572047 0.46979058 16.673925 9.5333338
-2.1155264 0.48553491 16.762424 8.6499996
1.6296124 0.52179468 16.693405 9.5
-2.4163377 0.67919582 16.670778 11.318182
-2.3257365 0.67857742 16.699148 10.59375
-2.1299117 0.6521681 16.795774 10
-2.4173465 0.90826738 16.682016 11.65625
-2.3397269 0.89160395 16.704254 11.15
-2.1729233 0.8970843 16.78043 11.5
1.6544728 0.89457321 16.69418 11
-2.4234705 1.0987129 16.676153 12.409091
-2.384011 1.0798134 16.665878 11
-2.1742699 1.0607448 16.793591 11.5
1.6401949 1.0414752 16.65621 12
-19.478073 1.3550028 16.707594 12
-2.4295607 1.2801846 16.654249 13.111111
-2.3849247 1.2810942 16.665113 11.333333
-2.1461709 1.3147471 16.791815 13.1
1.8204651 1.2457941 16.784739 13
-19.466429 1.4916427 16.730022 12
-2.4269137 1.4487851 16.64167 13
-2.3905377 1.5036336 16.64422 12
-2.1321244 1.4693656 16.789665 13.75
-2.4335899 1.6918048 16.655968 13.5
-2.1745725 1.7212087 16.793285 13
-19.475422 1.9017426 16.684782 13
-18.741978 1.9217589 16.77733 13
-17.572529 1.932282 16.708179 15
-2.4361234 1.9195677 16.648272 14.2
-11.595903 2.0507991 16.754343 15
-10.156792 2.0685229 16.601299 14
-2.4423623 2.1174667 16.64336 15
-2.1429844 2.1268265 16.77784 14
-10.168254 2.2296212 16.75959 12
-9.498045 2.2086234 16.779377 15
-8.2260742 2.2538619 16.746857 15
-19.49502 0.04437317 16.883633 8
-9.7346077 0.17966421 16.818628 9.5
-9.274642 0.14819707 16.914675 8.5
-8.0105848 0.18628517 16.89953 9.5
-7.9577541 0.17167602 16.830408 9
-7.97014 0.20680434 16.831753 10
-7.7229433 0.23957339 16.83886 10
-3.8270526 0.30696613 16.920027 10
-3.5444722 0.34834582 16.958557 10.75
-2.0807955 0.36721411 16.842192 7.6666665
-5.2411594 0.46196267 16.943644 13
-4.8999271 0.4756051 16.980202 13
-3.7928748 0.43886241 16.919613 13.5
-3.5938854 0.44674978 16.935141 13.5
-2.1088009 0.49066612 16.834671 8.9027777
-1.9849429 0.42915988 16.854691 7
-1.781076 0.41603157 16.811552 7
-2.1218092 0.70094973 16.860701 9.875
-2.2740016 0.88284862 16.837563 11.5
-2.1337914 0.92017287 16.857946 10.866667
-2.1326249 1.1075227 16.858053 12
-2.1412997 1.2792848 16.842899 12.45
-19.442526 1.4539379 16.923523 12
-2.1410868 1.5037922 16.833872 12.333333
-2.1561601 1.7056943 16.839638 13.25
-19.225578 1.8788186 16.811619 13
-17.548098 1.9451681 16.842161 15
-2.1418612 1.9243097 16.881731 14
-18.614468 2.0087466 16.842216 14
-11.633537 2.0430071 16.884951 15
-11.489182 2.092639 16.927052 14
-2.1136522 2.0358696 16.836397 14
-9.383831 2.2338948 16.827036 15
-8.1544476 2.389827 16.921503 13
-19.561533 -0.017980993 17.11128 8
-5.257637 0.32730266 17.028185 9.5
-4.9147019 0.33505496 17.078373 9.5
-2.0269771 0.3561675 17.0571 7
0.33101821 0.36309752 17.076765 8
1.8772864 0.23907594 17.026222 7.5
-2.1370404 0.53010082 17.131729 9.666667
0.45535016 0.42225736 17.164667 8
1.8881378 0.47620851 17.021214 9
-2.1642852 0.69903201 17.016033 12
1.8838789 0.71382511 17.026995 10.5
-2.2149839 0.84778976 17.088888 11.666667
-2.1319737 0.93586421 17.158524 12.375
0.47998071 0.97622621 17.151728 13
-2.2209826 1.035059 17.188593 12
1.8044086 1.1008227 17.004837 12
-2.1679287 1.2896482 17.097864 13
-19.439781 1.5055788 17.028658 12
-2.2492857 1.5181394 17.173161 14
-2.1565628 1.4495825 17.09478 14
-19.487402 1.8432871 17.086256 13
-18.747334 1.8979285 17.162098 13
-17.582615 1.9963548 17.06498 12
-15.751065 2.0836136 17.097155 14
-11.667211 2.0572648 17.166285 15
-11.419619 2.0765736 17.099422 15
-10.25093 2.1239738 17.146679 14
-10.151679 2.0832207 17.100513 15
-2.0426998 2.052578 17.067421 14
-11.584325 2.2245245 17.102543 11
-9.5281439 2.2750349 17.092396 13.5
-8.0745707 2.2193532 17.031315 14
-19.482782 0.052488521 17.27249 8
-3.9119706 0.32572809 17.288792 9.5
-3.6272516 0.3504445 17.285246 10
-2.4404659 0.36679572 17.397589 8
-2.2686341 0.36984694 17.355726 8.5
-2.0999448 0.37832332 17.315844 8.25
-3.8755887 0.46461034 17.27669 13
-3.7431135 0.50209147 17.278471 14
-2.2827609 0.51640719 17.346415 10
-2.1112366 0.50207657 17.307405 9.2440481
0.43896681 0.52098197 17.247286 9.5
-19.394318 0.60360396 17.369488 9
-2.4401171 0.67696387 17.396553 11.5
-2.2736413 0.66891676 17.362936 11.452382
-2.1061709 0.71249819 17.326986 10.847826
0.51013219 0.709387 17.302559 10.5
-19.43487 0.91620255 17.337093 10
-2.4402456 0.89037454 17.387665 11.625
-2.2882779 0.91654432 17.355429 12.625
-2.1237204 0.89492273 17.316721 11.357142
0.47191086 0.91794646 17.258869 11.9
-2.4544382 1.1848507 17.383987 13
-2.285605 1.123697 17.31308 12.5
-2.1439202 1.0971733 17.314528 11.583333
0.44005376 1.1015882 17.321873 13.333333
-19.498554 1.3921587 17.377539 11
-2.454232 1.2954637 17.392588 13.5
-2.1341004 1.2937049 17.298319 12.59375
0.52824068 1.2614877 17.307232 12.5
-19.458672 1.4725152 17.234285 12
-2.4561112 1.4760797 17.391552 13
-2.2800117 1.4268759 17.336813 14
-2.1275716 1.5057375 17.292988 12.9
0.52742195 1.4969679 17.287266 14
-2.2152848 1.7311481 17.201237 13
-2.1271496 1.7290703 17.289799 13.2
-19.525642 1.8652434 17.320129 12
-2.4676185 1.8851396 17.377468 14
-2.238914 1.9509255 17.321629 15
-2.1434364 1.8843794 17.32634 13.75
-17.460434 2.0154788 17.334946 13
-2.3346686 2.183501 17.367235 15
-2.1168547 2.0817251 17.278828 14.2
-8.0861712 2.3433282 17.372202 13
-3.4244332 2.5395625 17.280491 12
-19.471893 -0.0048640519 17.437943 8
-13.26845 -0.0065709502 17.526819 8
-13.184596 -0.01275266 17.519186 8
-19.513048 0.043011978 17.415474 8
-13.201549 0.002828829 17.548143 8
-13.140734 0.12637728 17.54007 8
-12.909126 0.087535568 17.553244 8
-12.665234 0.10518665 17.561724 8.166667
-12.479512 0.081324913 17.560093 8.375
-12.227777 0.053334855 17.580807 8.5
-12.092817 0.10275253 17.573437 8.6000004
-11.9016 0.088824995 17.585793 8.303031
-11.798348 0.14488004 17.576542 8.5
-13.257732 0.2262283 17.511215 9.5
-13.162127 0.28798664 17.526249 9.5
-12.888773 0.29674208 17.545235 9
-12.649896 0.29216632 17.554237 9.5
-12.483509 0.29779455 17.550797 10.125
-12.238458 0.31092501 17.568329 10.75
-12.150349 0.25496662 17.570206 10
-11.880268 0.28982261 17.577105 9.5277777
-11.75117 0.30181545 17.55695 10
-4.0480838 0.34902841 17.565102 10
-2.4481893 0.36516371 17.444258 8.333333
-2.306437 0.36590892 17.428705 8.1999998
-19.394569 0.45068526 17.486752 9
-11.789797 0.40067044 17.585361 11
-4.011765 0.48402524 17.567739 13.5
-2.4335573 0.49175695 17.429989 8.8076925
-2.3151238 0.48925939 17.425163 9.25
-2.1507905 0.52451533 17.459465 9
0.39809418 0.42679781 17.407303 8.5
0.47910684 0.5638544 17.513355 9.25
-2.4574656 0.68602204 17.43972 10.5
-2.3194392 0.72048581 17.424564 11.9375
0.48324516 0.710859 17.4998 10.083333
-2.4514489 0.89132226 17.438282 11.566667
-2.3203564 0.89253932 17.419603 11.166667
-2.168915 0.87265575 17.421722 11
0.45477748 0.94757724 17.499023 12.166666
-2.450485 1.0886223 17.432026 11.730769
-2.3202546 1.1943575 17.442165 14
-2.1229868 1.0711139 17.413828 13.166667
0.4374249 1.0876858 17.549715 13
-2.4480853 1.2771494 17.426849 11.8
0.41898251 1.2708969 17.537035 14
-2.4579685 1.4655045 17.424631 12.6
-2.46859 1.7084354 17.42098 13.333333
-18.758226 1.9032067 17.559484 13
-2.4642296 1.9177415 17.416874 13.8
-11.139954 2.0985518 17.41165 14
-10.443252 2.08126 17.460323 15
-10.228462 2.1216846 17.55858 14
-2.4725413 2.0483947 17.417711 14.5
-9.6810188 2.3516114 17.571352 12
-9.5239296 2.2385077 17.512089 14.25
-8.2498722 2.2687085 17.563236 13.5
-3.4578447 2.5309863 17.440945 12
-13.131093 0.18615684 17.674145 7
-12.617731 0.11064998 17.61618 8
-12.119791 0.19524175 17.745821 7
-11.845353 0.1203734 17.636763 7.8333335
-9.345849 0.12201014 17.689402 8.5384617
-9.0513573 0.1379534 17.718262 8
-8.8988724 0.11534327 17.717396 8.625
-8.6741867 0.134663 17.736481 8.5
-8.4191942 0.13392156 17.748295 8.5
-8.2812843 0.19853207 17.749947 8.5
-7.9766769 0.15637463 17.760511 8.833333
-7.5735397 0.17068957 17.797295 8.5
-19.362202 0.37100273 17.726595 9
-13.508098 0.25981754 17.756517 7
-12.61735 0.31511092 17.600756 9
-11.825957 0.28898495 17.623055 9.75
-9.3393106 0.31090999 17.672226 10.704189
-9.0874319 0.31299803 17.689053 11.1
-8.8868752 0.31017128 17.719612 10.5
-8.6592369 0.29090708 17.74494 10.25
-8.50704 0.2674039 17.728743 9.75
-8.2729177 0.30597019 17.737194 10.291667
-8.0648527 0.2877754 17.765902 9.5
-7.9440498 0.26327282 17.756607 9.25
-7.7062645 0.21102685 17.766628 8.5
-7.5472445 0.28620535 17.787687 9
-7.2954483 0.25788781 17.774649 8.666667
-7.0572348 0.29026681 17.781485 9
-6.972868 0.22862092 17.792765 8
-6.5353198 0.26478973 17.787477 8
-3.7452273 0.34439126 17.670948 9.5
-2.4950476 0.30707943 17.711487 8
-9.298296 0.44461221 17.669262 12.059999
-9.0916872 0.44497752 17.679329 13
-8.8912401 0.4465057 17.6821 13.083333
-8.6990328 0.46304849 17.716263 12.5625
-8.4942493 0.45319763 17.718706 12.2
-8.3021965 0.4969385 17.736341 11.924243
-8.0591383 0.50056374 17.735151 12.75
-7.9224277 0.48283827 17.754799 12.134615
-7.7238197 0.51697326 17.754791 12.428572
-7.5130348 0.50658542 17.766985 12.214286
-7.3152227 0.5195058 17.765911 12.071428
-7.0999794 0.55746263 17.776949 13
-6.9337707 0.53395039 17.789299 12
-6.6869121 0.53294873 17.792276 12.166667
-6.5771861 0.48119658 17.787876 13.25
-19.481171 0.71970034 17.741924 10
-2.4848735 0.79088461 17.63287 13
0.47758269 0.72405332 17.707455 11
-19.507481 0.93459094 17.763725 10
-2.5992203 0.8000946 17.614382 14
0.38725281 0.89183038 17.65432 11
0.42595506 0.9276042 17.750969 11.5
-19.502613 1.0590234 17.748341 11
0.43196332 1.1002454 17.698795 13
-19.434719 1.3661845 17.79355 12
-19.486078 1.4841884 17.7577 12
-19.525946 1.7657009 17.7285 13
-19.512648 1.8927613 17.728067 12.833333
-18.740398 2.041029 17.742071 14
-11.689169 2.0966895 17.61841 15
-10.17777 2.2262502 17.697214 14
-9.740696 2.3887806 17.775328 12
-9.5782461 2.3280075 17.621328 12.333333
-7.894496 2.2906194 17.663006 13
-13.236368 0.061623111 17.970547 8
-6.5024724 0.19554058 17.81896 9
-13.227928 0.32325041 17.963737 9
-12.339733 0.27296257 17.861887 7
-7.9722862 0.36816391 17.810572 13
-6.9264541 0.32044706 17.811134 9.166667
-6.6396694 0.27883101 17.843182 8.125
-6.490612 0.28856689 17.860374 8.9838705
-6.3663416 0.24707808 17.903963 8
-5.4137392 0.32494926 17.870808 8.75
-5.3532619 0.30011037 17.88027 8.7058821
-5.0112066 0.35633388 17.883348 9.25
-4.8717256 0.31024551 17.89537 8.625
-4.7562137 0.3297689 17.907024 8.75
-4.506217 0.32233992 17.92383 8.5
-4.3474932 0.30247751 17.924999 8.25
-4.0508323 0.36002898 17.951994 8.8253965
-3.9334736 0.34042111 17.969383 8.625
-2.9301977 0.36131221 17.996815 7
0.37702179 0.38969427 17.827723 8
-19.428782 0.46654302 17.957613 9
-6.9533114 0.53220922 17.805326 10
-6.6327572 0.49731931 17.806515 12
-6.5228882 0.47704047 17.843298 11.036232
-6.3925314 0.41780984 17.913956 10
-5.422791 0.50171453 17.868683 10.666667
-5.3518491 0.51694989 17.871664 11.53125
-5.110714 0.54085696 17.880892 12.875
-4.8698931 0.53473431 17.892534 12.083333
-4.7074952 0.54874247 17.90008 11.25
-4.4761319 0.53730756 17.913548 11.214286
-4.2777796 0.56362653 17.921671 11.3
-4.0835304 0.52588534 17.947319 11.507692
-3.9676723 0.51296759 17.972958 10.861111
0.29701328 0.46032611 17.899427 8.333333
0.48042426 0.52250993 17.846445 8.666667
-5.4114141 0.62949944 17.914371 10
-5.2502389 0.63031864 17.875534 13.666667
-5.1072879 0.61501151 17.880888 13
-4.9133835 0.63448286 17.872246 13.5
-4.6939721 0.62842792 17.915001 13.333333
-4.4410849 0.62738925 17.92136 11.5
-4.3059011 0.63143343 17.94121 13.666667
-2.4790885 0.66873908 17.84012 11
0.31868076 0.66278011 17.885462 9.666667
0.43399084 0.70537186 17.863708 10.5
0.30219996 0.88977289 17.888382 11
0.47810984 0.92256898 17.847635 11
0.2759366 1.0254362 17.850552 12
0.44452953 1.0544887 17.868126 12
0.30660829 1.2844266 17.886894 13
-19.443945 1.4626107 17.844019 11.666667
0.25345778 1.5058904 17.871883 14
0.44132304 1.4678073 17.873398 13.583334
-16.546484 2.0779762 17.903004 12
-11.636077 2.0857518 17.995615 14
-11.55612 2.0671675 17.888508 14
-10.223909 2.1522667 17.872097 15
-10.31859 2.2799609 17.993 11
-10.180687 2.3375859 17.998047 12
-8.2039213 2.4251235 17.871151 12
-8.1624737 2.405422 17.946503 12
-4.4800787 2.5884976 17.965725 12
-13.225647 0.10260516 18.049025 8
-13.212306 0.33145025 18.143242 9.333333
-13.198385 0.21734306 18.174282 9
-12.477236 0.32676041 18.183731 10
-6.6759429 0.28466386 18.126373 8.3611116
-6.5878205 0.2731131 18.196268 8.75
-3.0583477 0.34264076 18.147602 8.15625
-2.939888 0.33930448 18.143227 8
-2.7261147 0.33406487 18.154602 8.25
-2.4694474 0.35643616 18.137827 8
-2.3622456 0.39702815 18.042276 7
0.27899361 0.38423124 18.197388 8
-6.6597824 0.44616276 18.145588 10
-6.5741987 0.46649346 18.175245 10.4
-3.0695012 0.50526422 18.15457 9.1574078
-2.6385317 0.57005918 18.171638 10.25
-2.4791875 0.48559403 18.164331 8.5789471
-3.0634975 0.70935535 18.140043 10.833333
-2.9702387 0.70572245 18.132402 10
-2.6443744 0.74885559 18.165596 12
-2.4843473 0.70315444 18.154352 9.7105265
-3.2025669 0.93712467 18.161839 14
-3.0636306 0.91137588 18.135326 11.775
-2.6582837 0.91211605 18.166164 13.75
-2.4876852 0.91853577 18.150402 11.87037
-3.0631375 1.1023457 18.136097 12.178572
-2.4949458 1.1044269 18.149734 11.636364
0.25993705 1.0002513 18.15666 12
-3.0730782 1.3038116 18.125578 12.866667
-2.4981551 1.2808865 18.140011 12.5
0.28801751 1.3538053 18.13203 13
-19.445618 1.5592659 18.105492 12
-3.0660925 1.5230197 18.127365 12.75
-2.4947245 1.4883109 18.124662 12.958333
0.28979838 1.4774765 18.180229 13.5
-3.0751867 1.6846069 18.125975 13.5
-2.4976509 1.7314837 18.110107 13.2
-19.434437 1.9332999 18.099592 13
-18.761799 1.9999444 18.147303 14
-3.075423 1.8605433 18.12891 14
-2.5117209 1.9183115 18.124891 13.833333
-18.771585 2.0155835 18.099054 14
-17.355919 2.029541 18.037956 12
-16.240044 2.0919287 18.061466 12
-15.958321 2.0992467 18.164665 12
-15.621834 2.1158183 18.199728 14
-11.678156 2.0771742 18.066315 14
-10.623242 2.0859876 18.026512 15
-10.419829 2.0997055 18.173227 13
-3.0790615 2.0785737 18.119324 15
-2.9451013 2.0239789 18.113008 14
-2.5041671 2.0950828 18.096272 14.5
-10.251078 2.2848787 18.136932 12
-10.147655 2.2997093 18.071482 13
-8.6364441 2.2761617 18.048571 14
-8.1669741 2.2570012 18.024734 14
-7.9851131 2.3072617 18.08769 13
-3.0912061 2.252712 18.116005 15
-2.6576705 2.2087903 18.123907 15
-2.5003269 2.2713637 18.071171 15
-2.5279608 2.415864 18.112724 15
-3.7452755 2.6487675 18.113855 12
-13.223591 0.083790749 18.338797 8
-13.179649 0.06949722 18.325335 8
-12.454458 0.15592003 18.268366 8.5333338
-12.398199 0.081272468 18.23979 8
-19.418297 0.37241691 18.377623 9
-13.236037 0.32808682 18.358721 9
-13.196734 0.23942597 18.351604 9
-12.420712 0.30084571 18.251923 9.666667
-12.39086 0.37044358 18.273796 10
-6.6117187 0.26979265 18.228361 8.5
-6.5927453 0.25305948 18.241465 8.3000002
-3.0766611 0.36575168 18.329786 8
-2.6176252 0.3433179 18.203377 8.25
0.30388832 0.39099091 18.368473 8
-13.154049 0.40805101 18.329952 10
-6.5727468 0.44889957 18.213024 10
-3.0602622 0.5037626 18.216604 8.5
-2.5303657 0.46507001 18.236374 8.5
0.27286994 0.52344465 18.279673 9
-19.438892 0.71666217 18.369902 10
-3.0673459 0.68518466 18.260298 9.75
-2.5487611 0.63348889 18.237883 10
0.30381757 0.66783333 18.266598 9.75
-3.0851147 0.83083367 18.342751 10.5
-2.542079 0.8625741 18.227112 11
0.35993934 0.92144686 18.271137 11
-19.450981 1.0793998 18.37747 11
-18.954441 1.1632752 18.382179 10
-2.5626073 1.0348693 18.227207 12.5
0.29936886 1.0513878 18.2974 12
-2.5642231 1.2138883 18.225149 14
0.26107663 1.2690361 18.281034 13.266667
-19.455797 1.4823312 18.355165 12
-19.464279 1.6839093 18.310106 12.5
-18.968018 1.7063805 18.371256 11
-19.46925 1.8115475 18.365833 13
-19.246155 1.9248356 18.29261 13
-18.71088 2.0586593 18.38464 14
-10.225067 2.1158183 18.349087 14
-10.178656 2.1253321 18.260643 14
-10.295928 2.3112135 18.331974 11
-10.172642 2.2522867 18.357073 13.5
-8.3449755 2.2897227 18.37464 13
-8.1401463 2.2983887 18.350178 14
-8.3376188 2.4574876 18.386036 12
-4.5368381 2.6023641 18.226528 12
-13.229276 0.10064815 18.480892 8
-18.905487 0.37481314 18.521629 9
-13.229233 0.32897264 18.57597 9.5
-7.0625172 0.24017735 18.488438 8
-6.9844751 0.24920043 18.534821 8
-4.9053011 0.37260503 18.584894 8.666666
-4.0041752 0.34812301 18.537237 8.5
-3.9857593 0.33700693 18.51602 8.5
-3.0510674 0.34583053 18.502356 8
-19.409296 0.41348639 18.447981 9
-7.1268129 0.50519472 18.500887 9.5
-4.8437781 0.51483053 18.519955 10
-4.0151644 0.57530975 18.545931 10.5
-3.9968066 0.51216084 18.525587 10
-3.0956905 0.49330673 18.518286 9
0.34360981 0.42399937 18.492096 8
-19.446148 0.75209719 18.402956 10
-18.911438 0.68663007 18.462687 9.7142859
-4.8489809 0.61130232 18.555847 11
-3.9800162 0.62429643 18.491861 11
-3.0933414 0.71424782 18.519512 10.625
-18.927071 0.91079688 18.563072 10
-3.0885983 0.91019899 18.513453 11.6
0.33740056 0.90620315 18.434864 11.5
-19.457409 1.1082276 18.401541 11
-18.931482 1.0643958 18.456644 10.833333
0.26539803 1.0490552 18.496872 12
-18.925013 1.3721486 18.480335 11.714286
-19.442142 1.5097828 18.414948 12
-19.256706 1.4140722 18.433624 12
-19.151009 1.5507933 18.417799 12
-18.911142 1.4834402 18.444569 12
-18.930761 1.7238382 18.445694 12.625
-19.449089 1.9506512 18.405239 13
-18.898806 1.8604064 18.52458 12.666667
-11.695289 2.1179733 18.558422 14
-11.145938 2.1179476 18.519157 14
-10.233107 2.380394 18.443434 12
-10.085257 2.2041264 18.43626 15
-8.0131531 2.2703681 18.592533 14
-11.325267 0.15464605 18.782621 8.272727
-18.888271 0.37615317 18.684282 9
-13.248857 0.25488973 18.773973 9
-11.411924 0.27497625 18.789059 8.5
-11.345741 0.31272337 18.778141 9.195652
-10.493663 0.2407309 18.786625 9
-7.0698004 0.24719316 18.684877 8
-6.9300709 0.29878822 18.709162 8.4861116
-4.8590021 0.35897452 18.613308 9
0.29011321 0.3995266 18.629978 8
-11.43605 0.49010333 18.782429 9.3999996
-11.351314 0.52197069 18.777924 10
-10.539559 0.53657758 18.783207 10.375
-7.0229697 0.48714113 18.684261 9.333333
-6.9489522 0.48312736 18.711618 10
-4.8334312 0.49864566 18.611692 10
0.28359342 0.57782239 18.674671 9.333333
-18.902477 0.75959629 18.778149 10
-11.40932 0.66754794 18.783392 11
-11.353937 0.70042402 18.770466 11.16
-10.554268 0.69719571 18.782742 10.666667
-7.0463409 0.64928705 18.681723 10.8
-6.9998126 0.70837295 18.631252 11
-11.408762 0.94202232 18.777557 11.4
-11.350145 0.91735119 18.771868 12.105263
-11.154108 0.95572495 18.768162 12
-10.946044 0.88755357 18.789204 10
-10.660175 0.9732731 18.797079 10
-10.557195 0.92054021 18.787489 10.714286
-3.0955338 0.94341522 18.764256 10
0.28770149 0.88567758 18.740269 11.5
-11.406865 1.1343631 18.771246 12.666667
-11.339237 1.0820365 18.773079 12.111111
-10.952365 1.112263 18.786432 12.5
-10.632686 1.0727048 18.784716 10
-10.573923 1.14039 18.78533 11
-3.1839509 1.0777456 18.708878 13.5
0.13294387 1.0800509 18.756329 12
-11.410411 1.255742 18.761518 11.666667
-11.354017 1.2829999 18.760803 11.6
-10.927324 1.2840487 18.779392 11
-10.683309 1.3541812 18.790501 12
-10.583416 1.2576255 18.782612 11.5
0.13501477 1.2026056 18.651083 13
-18.933441 1.5201313 18.703154 11.75
-11.411859 1.496366 18.762657 13
-11.360456 1.5100852 18.756163 12.5
-10.627851 1.5013653 18.766872 12
-10.572165 1.4912786 18.790468 12.111111
-18.954077 1.7301702 18.763725 12
-11.421444 1.6876892 18.738684 13
-11.343453 1.7087036 18.754822 13.428572
-11.002483 1.6521819 18.76479 12
-10.652549 1.6875296 18.779417 12
-10.578128 1.6935257 18.783037 13.571428
-18.825592 1.9321936 18.723827 13
-11.400812 1.8793929 18.720137 13.5
-11.371937 1.8876016 18.755102 13.375
-11.062779 1.8044416 18.789972 13
-10.662076 1.9235872 18.765451 12.666667
-10.569068 1.9213609 18.75963 13.333333
-18.802027 2.0298688 18.648849 13
-18.731476 2.0496626 18.661816 14
-11.409341 2.0443239 18.749237 14
-11.33678 2.055387 18.750904 14.2
-11.014931 2.067199 18.772255 14.333333
-10.903431 2.1027918 18.788372 14
-10.634467 2.0818751 18.772835 12.666667
-10.569844 2.0398114 18.777941 14
-10.28089 2.1374803 18.679707 14.5
-8.1270676 2.2461276 18.678978 13.5
-11.333804 0.13044854 18.816494 8.0500002
-10.997375 0.18615904 18.816162 8
-10.605097 0.060709521 18.854397 8
-10.562484 0.1467113 18.837145 8.1428576
-10.379788 0.05483108 18.986565 7
-11.628557 0.25732872 18.985909 7
-11.35219 0.28114969 18.814079 8.375
-10.623179 0.2807776 18.838743 8.1875
-10.55922 0.28977326 18.822226 8.7142859
-3.0969157 0.3682988 18.928036 8.5
-18.90786 0.4035171 18.878845 9
-11.380876 0.51760882 18.822094 10
-10.889414 0.55118942 18.809689 9
-10.667859 0.50160271 18.884512 8.666667
-10.565073 0.49550137 18.825613 9.8249998
-4.0497594 0.50388193 18.92835 8.5
-3.063653 0.41175547 18.941505 9
-11.402157 0.65645534 18.851526 10
-11.383911 0.68226337 18.806751 10.5
-10.646969 0.70407802 18.815578 9.3999996
-10.568105 0.70283753 18.819998 11.285714
-3.1585634 0.79841155 18.950068 12
0.29946887 0.65944386 18.925011 9.5
-11.407361 0.8888635 18.846691 11
-11.298786 0.90076429 18.805895 10.666667
-10.811865 0.9615891 18.809628 11
-10.642889 0.91885966 18.832487 10.666667
-10.563934 0.9087159 18.830273 11.763158
-3.137713 0.99568397 18.958595 12
0.27414903 0.87440473 18.930281 11
-18.930246 1.0159791 18.881065 11
-11.388079 1.120671 18.83466 12
-10.672022 1.1413242 18.827969 11.428572
-10.568056 1.1017957 18.838482 12.461538
-3.1411593 1.1095603 18.833651 13.5
-11.418934 1.3581195 18.831579 13
-10.645022 1.2789963 18.827818 11.666667
-10.566304 1.271137 18.839535 13
-3.1282449 1.2655571 18.858679 13.75
-11.172513 1.4691863 18.804783 10
-10.81758 1.4811039 18.820189 10
-10.686997 1.5772678 18.824852 11
-10.566807 1.4927872 18.842287 12.8125
0.37182784 1.542111 18.996222 14
-18.977299 1.7224362 18.860924 12
-11.42656 1.6004875 18.830084 14
-10.607739 1.6899939 18.852262 12.666667
-10.580238 1.7190448 18.841558 14
-3.1543283 1.7291639 18.901947 14
-11.432104 1.8422985 18.820503 15
-10.834984 1.9875563 18.820732 11
-10.61731 1.9002215 18.854479 15
-10.578148 1.9144344 18.854799 13.5
-18.713831 2.0514443 18.87998 14
-17.6012 2.1193562 18.945835 12
-17.325087 2.0814116 18.961908 13
-14.759544 2.1303778 18.889771 13
-10.647328 2.0256507 18.807785 12
-10.338866 2.2092373 18.815361 15
-8.020525 2.2728064 18.879219 14
-13.237661 0.091772102 19.086077 8
-13.234472 0.262678 19.076637 9
-11.907637 0.35205573 19.093384 7
-11.117791 0.36361098 19.160118 7
-10.865408 0.33056349 19.021648 7
-10.52412 0.27214286 19.028761 7
-4.041811 0.29778951 19.045258 8
-13.239108 0.43489718 19.071556 10
-3.1015148 0.50941783 19.066584 10
0.28160566 0.46243635 19.078489 8.25
-18.948198 0.68619287 19.147005 9.5
-3.108439 0.67905498 19.01104 11
0.28909278 0.65760392 19.05073 9.5
-10.579745 0.94608676 19.067673 14
-3.1168842 0.91865361 19.080967 12.2
0.30628633 0.87775058 19.085054 11
-18.956301 1.1194679 19.129507 10.25
-10.569058 1.065755 19.145987 12.5
-3.129519 1.1103069 19.071018 13.1
0.33411717 1.0692413 19.020308 11.75
-10.562148 1.2725694 19.178967 14
-3.1408598 1.3315442 19.047171 13.333333
0.32666174 1.3578057 19.073435 13
-18.934509 1.4616749 19.167248 12
-10.569368 1.4698284 19.179249 14
-3.1485691 1.5120447 19.096142 14
0.25695577 1.5037447 19.131807 14
-18.966269 1.762526 19.174866 12
-3.1625533 1.7618744 19.194044 14
-17.201563 2.0646071 19.093277 12
-14.28759 2.1901634 19.194727 11
-13.240512 0.10009367 19.242697 8
-10.568883 0.14877065 19.274874 8
-18.928253 0.38615748 19.251501 9
-13.214717 0.28871509 19.214746 9.166667
-3.1064389 0.39290088 19.385889 8.5
-18.925949 0.42093155 19.247515 9
0.25356197 0.57043004 19.338957 9
-18.953049 0.7293511 19.250114 9.75
-18.959616 0.86673325 19.286617 10
-10.566193 0.91372371 19.253319 12.75
-3.1424494 0.89490622 19.308739 11.916667
-18.946152 1.0903802 19.250021 11
-10.57653 1.1376922 19.222931 13
-3.124028 1.0973446 19.335787 12.5
-18.963123 1.336673 19.293335 11.25
-10.579016 1.2187507 19.271126 13
0.23824239 1.3354027 19.214428 13
-18.955301 1.4660637 19.22504 11.857142
-10.58539 1.5526247 19.211243 14
-3.1441166 1.4333746 19.255341 13.5
