# .PCD v0.7 - Point Cloud Data file format
VERSION 0.7
FIELDS x y z intensity
SIZE 4 4 4 4
TYPE F F F F
COUNT 1 1 1 1
WIDTH 1331
HEIGHT 1
VIEWPOINT 0 0 0 1 0 0 0
POINTS 1331
DATA ascii
12.580557 -19.246292 1.3353224 12
12.564938 -19.265173 1.6980076 13
12.814342 -19.298521 1.335574 12
12.823286 -19.306431 1.6942143 13
13.86827 -9.4017048 0.39354208 11
13.18656 -19.266119 1.6752049 13
14.126159 -12.20598 0.13172098 9
13.476564 -19.2596 1.6656548 13
13.626536 -18.610847 1.8853307 14
14.362421 -12.211572 0.081379555 8.5
14.617528 -9.4232893 0.13719992 9
14.305311 -12.223941 0.32290736 11
14.503289 -9.426218 0.34931725 11.5
15.133638 0.4768132 1.1328334 10
15.118931 0.46890917 1.5013542 11
15.116403 0.44993201 1.8693306 12
13.785612 -19.284929 1.6626627 13
13.903758 -18.618994 1.8771244 14
15.093054 0.44537634 2.2453578 13
15.151931 -0.77568638 2.3250012 14
14.679618 -12.229115 0.12296379 9.1999998
14.80167 -9.4329815 0.18290101 9.6000004
14.694896 -12.239535 0.30565444 11
14.854046 -9.4399986 0.38691711 13
15.524401 0.46198499 1.1397766 10
15.4274 0.45324659 1.504505 11
15.414773 0.43968534 1.871562 12
14.175777 -19.283659 1.6557792 13
14.112174 -18.62579 1.8723638 14
15.400981 0.43218186 2.2454326 13
15.298932 -0.7783578 2.3246412 14
14.94625 -12.241541 0.079291619 8.75
15.100382 -9.4472036 0.18792114 10.090909
14.987391 -12.25416 0.2955884 11
15.1067 -9.4487543 0.36608908 13.5
15.810975 0.45270061 1.1458262 10
15.713891 0.44168007 1.508961 11
15.719635 0.4267846 1.8749287 12
14.471572 -19.296001 1.6546829 13
14.424031 -18.637913 1.8676572 14
15.668935 -2.3885715 2.2040777 15
15.705936 0.41927159 2.2474523 13
14.49122 -17.715347 1.9701334 15
15.619552 -0.79365134 2.3234103 14
15.276203 -12.254382 0.094009511 8.8000002
15.440402 -9.46383 0.17426543 10.272727
15.266525 -12.263227 0.28864765 10.5
15.35336 -9.4571247 0.33714795 14
14.799088 -19.297573 1.3144851 12
15.998081 0.43237853 1.5145053 11
16.003883 0.41203186 1.8786843 12
14.771722 -19.311695 1.6560626 13
14.711025 -18.648556 1.8652531 14
15.803572 -2.3912606 2.2043877 15
15.990117 0.40608668 2.2504387 13
14.872347 -17.739607 1.9662036 15
15.920077 -0.79123133 2.3284938 14
15.590647 -12.269517 0.1374989 9
15.685722 -12.265916 0.11072949 9
16.313456 0.5038045 0.4345434 8
15.642613 -12.254737 0.36733255 11
16.300877 0.46617827 0.79503202 9
15.030492 -19.304829 0.98370862 11
16.268784 0.45738065 1.1590453 10
15.080173 -19.310005 1.3181028 12
16.218676 0.44129413 1.5218356 11
16.273178 0.45067346 1.8928709 12
15.069976 -19.324514 1.6585554 13
15.013273 -18.660454 1.8653066 14
16.105103 -2.4062791 2.2048836 15
16.192225 0.39431521 2.2530494 13
15.171043 -17.79064 1.9741012 15
16.1938 -0.75834227 2.3430355 14
15.85236 -12.284233 0.15620963 9
15.900929 -12.275166 0.11217082 8.8000002
16.147734 -8.8013391 0.23960276 11
16.162333 -8.5108089 0.239411 10.090909
16.176134 -8.2168884 0.2496631 9.6000004
16.278322 -5.8273478 0.26981109 8.5
16.576853 -2.3558779 0.33685258 8
15.37986 -19.34939 0.32829598 9
15.855515 -12.263967 0.36587763 11
16.155575 -8.4681015 0.43852609 13.6
16.169029 -8.2003489 0.45184404 12.666667
16.271622 -5.8538918 0.4812848 10
16.555729 -2.3783178 0.59799927 9
15.340125 -19.336182 0.65935904 10
16.55393 -2.3806238 0.8629818 10
15.269223 -19.318634 0.98869371 11
16.550251 -2.3849678 1.2616111 11.5
15.363731 -19.359695 1.3283143 12
16.473494 -2.4099078 1.6589752 13
16.514309 -2.4120064 1.9361475 14
15.3536 -19.375744 1.6695464 13
15.411508 -18.6768 1.8689526 14
16.404716 -2.42155 2.2081075 15
15.372369 -17.841118 1.9851761 15
15.762419 -19.412849 0.0091483239 8
16.81484 -2.1827066 0.35077634 8
15.662096 -19.329109 0.3351382 9
16.763273 -2.2089198 0.61693197 9
16.931808 -2.1185799 0.62911791 9
15.61834 -19.354778 0.66699576 10
16.773611 -2.2200611 0.88760579 10
16.921572 -2.1241918 0.90315664 10
15.600844 -19.380548 1.0013335 11
16.749128 -2.2280715 1.1574003 11
16.911299 -2.1245456 1.1782432 11
15.682333 -19.398197 1.3388634 12
16.711998 -2.2994587 1.5530115 12.5
16.901125 -2.1344261 1.4529604 12
16.792887 -2.2250988 1.8513682 13.5
15.67223 -19.41721 1.6809 13
15.709214 -18.687344 1.8738959 14
15.852869 -17.541719 1.9140061 15
16.669527 -2.4334929 2.2142639 15
16.869398 -2.0978575 2.0293329 14
15.624574 -17.883688 1.9960544 15
15.928081 -19.419664 0.014188702 8
17.037771 -2.125901 0.36002558 8
15.923776 -19.346598 0.3430258 9
17.084629 -2.1088626 0.63513923 9
15.914614 -19.359255 0.67478698 10
17.076498 -2.0892627 0.91269952 10
15.906171 -19.386938 1.0089102 11
17.063765 -2.118078 1.1852548 11
15.896709 -19.402861 1.3440431 12
17.1455 -2.1328261 1.4639295 12
17.100489 -2.193743 1.7308567 13
15.886525 -19.427877 1.6867861 13
15.90679 -18.69689 1.8790992 14
16.024837 -17.545919 1.9177914 15
17.013931 -2.4482441 2.2261567 15
17.13122 -2.0728858 2.0484955 14
16.225098 -19.43103 0.023361504 8
17.460836 -2.3259408 0.36650726 8
17.28821 -2.1087532 0.36881605 8
16.218412 -19.374895 0.35268182 9
17.435303 -2.3316658 0.6319555 9
17.275213 -2.0964141 0.64287806 9
16.209076 -19.400772 0.68593824 10
17.441101 -2.339041 0.90068954 10
17.265711 -2.0984988 0.91913098 10
16.200653 -19.419569 1.0202268 11
17.448263 -2.3751466 1.255021 11.333333
17.253067 -2.1198487 1.1930487 11
16.191935 -19.432898 1.3557892 12
17.41622 -2.3556621 1.6204101 12.666667
17.353336 -2.1730609 1.4666096 12
17.425348 -2.3796809 1.9883447 14
17.311157 -2.1567636 1.7494434 13
16.18264 -19.445055 1.697008 13
16.218138 -18.710222 1.8891284 14
16.295061 -17.546616 1.924421 15
17.312578 -2.4615231 2.2399714 15
17.334953 -2.1674466 2.0359225 14
16.521128 -19.425814 0.032688703 8
17.732231 -2.4108281 0.37331542 8
16.512529 -19.413324 0.36308205 9
17.728918 -2.4300251 0.63714808 9
16.503706 -19.43577 0.69737166 10
17.723021 -2.4370136 0.90354842 10
16.495932 -19.448175 1.032159 11
17.70116 -2.4415426 1.3040917 11.5
16.487244 -19.454729 1.367702 12
17.691053 -2.4599519 1.7080089 13
17.685841 -2.4638147 1.9854803 14
16.478138 -19.465509 1.7093751 13
16.51354 -18.723185 1.9008361 14
16.67729 -17.546368 1.9376094 15
17.674307 -2.4753695 2.2621102 15
16.818825 -19.448717 0.042183232 8
17.691216 -9.2465801 0.26181945 10
17.707575 -8.9635153 0.26493338 9.5555553
17.72732 -8.6571207 0.32557359 10
17.739803 -8.4295549 0.27654412 9.2857141
18.150448 -2.521997 0.38406309 8
18.033789 -2.4297266 0.3832792 8
16.811373 -19.447258 0.37402892 9
17.688192 -9.228817 0.45666677 13.571428
17.706429 -8.9397678 0.45961988 12.75
17.71866 -8.7279949 0.4807969 12.5
17.737345 -8.396451 0.48201212 11.666667
18.076885 -2.4458113 0.65066773 9
16.802641 -19.460012 0.70912099 10
18.073164 -2.4833117 0.91578823 10
16.79491 -19.463118 1.0440748 11
18.06427 -2.4817548 1.1842152 11
17.946363 -2.4633458 1.5414342 12.333333
16.785765 -19.462099 1.3793538 12
17.969326 -2.4765463 2.0036843 14
16.776773 -19.472332 1.7214781 13
16.812109 -18.738274 1.9156603 14
17.957275 -2.4897296 2.2813046 15
17.193754 -19.460665 0.054402571 8
17.550718 -12.63674 0.18695314 9
17.574083 -11.949252 0.19647281 9
18.155203 -2.9802163 0.36750728 8
18.155117 -2.7385628 0.3763212 8
17.191042 -19.415926 0.3861818 9
17.536198 -12.644057 0.39062458 11
17.554321 -11.921284 0.40585849 11
17.760836 -8.2694931 0.53147733 12
18.144014 -2.9931445 0.61491925 9
18.146317 -2.6808696 0.63705575 9
17.201729 -19.409533 0.72040534 10
18.241297 -3.0029819 0.99618304 10.5
18.144711 -2.7061424 0.8959958 10
17.18969 -19.43041 1.0561047 11
18.231289 -3.0166872 1.3728478 12
18.13649 -2.7152495 1.2868255 11.5
18.219877 -3.0285809 1.6270784 13
18.122805 -2.7472081 1.6780438 13
18.131437 -2.5002193 1.5470295 12.333333
17.08194 -19.443947 1.3887007 12
18.211943 -3.0272238 1.8891524 14
18.114361 -2.7461572 1.9492236 14
18.112272 -2.5169101 2.0054419 14
17.074545 -19.477476 1.7348616 13
17.110811 -18.749954 1.9318464 14
18.201307 -3.0353649 2.1503747 15
18.105263 -2.7447042 2.2225893 15
18.100834 -2.5244994 2.2843702 15
17.443054 -19.381702 0.39426446 9
17.495909 -19.415977 0.7326045 10
18.534842 -3.0699856 1.0059757 10.5
17.493124 -19.46912 1.07319 11
18.571186 -3.0849583 1.38683 12
18.560493 -3.0933068 1.6428708 13
17.384808 -19.481953 1.4077132 12
18.552536 -3.0929139 1.905872 14
17.376532 -19.499092 1.7533047 13
17.412687 -18.766197 1.9517448 14
18.54014 -3.1062701 2.1665828 15
17.811018 -19.387609 0.40850902 9
17.799364 -19.437 0.74704337 10
18.874582 -3.0865421 1.026014 10.5
17.744036 -19.468189 1.0848966 11
18.867073 -3.1009221 1.4086993 12
18.845078 -3.1077409 1.666805 13
17.663807 -19.505287 1.4247619 12
18.847933 -3.1099148 1.9333087 14
17.646801 -19.517895 1.771039 13
17.701649 -18.781519 1.9726491 14
18.836246 -3.1199627 2.1979542 15
18.572128 -13.221535 0.191347 8.5
18.77656 -11.095674 0.23896696 9
18.796272 -10.823031 0.24017768 9
18.805466 -10.596745 0.24150254 9
18.108591 -19.40876 0.42105228 9
18.564371 -13.228067 0.39645714 10
18.102057 -19.42963 0.76027572 10
19.109407 -3.1009336 0.91129422 10
18.005915 -19.43808 1.095013 11
19.170761 -3.1056409 1.3042902 11.5
19.158157 -3.1255622 1.6949013 13
17.98547 -19.440258 1.4336224 12
19.150711 -3.1245971 1.9644613 14
17.97509 -19.450909 1.7793492 13
17.907263 -18.789894 1.988385 14
18.110847 -18.780054 2.0012264 14
19.139284 -3.1335125 2.2329445 15
18.776714 -11.304572 0.24042934 9
18.786362 -11.169146 0.26223633 9
18.803982 -10.837291 0.23803036 8.666667
18.950838 -10.57656 0.28810686 9.1999998
18.314741 -19.417803 0.42984948 9
18.770348 -11.319858 0.57244855 11.5
18.781754 -11.115141 0.58541644 11.75
18.793978 -10.879786 0.57119846 11.714286
18.933161 -10.581105 0.58275807 11.666667
18.366455 -19.429745 0.77298528 10
18.768036 -11.316234 0.76859677 13.5
18.773144 -11.190022 0.75676644 13.5
18.786152 -10.879998 0.78020608 14
18.999128 -10.583879 0.78866965 13.666667
18.359388 -19.439262 1.1142052 11
19.424948 -3.1185505 1.3688848 11.666667
19.442965 -3.1368754 1.7236416 13
18.362791 -19.444317 1.4569261 12
19.441376 -3.1394804 1.9969105 14
18.286684 -19.463913 1.8021716 13
18.396635 -18.791315 2.0262806 14
19.414755 -3.148638 2.2668867 15
19.274668 -10.560382 0.25622448 8.75
19.288431 -10.573053 0.64018846 11.5
18.622395 -18.908272 0.75175101 10
19.294794 -10.584496 0.85476631 13.5
18.63236 -18.91687 1.0779911 11
19.762449 -3.1400235 1.4864717 12
18.623762 -18.922958 1.4042349 12
19.755611 -3.1504543 1.7568977 13
18.612484 -18.93173 1.7359673 13
19.797985 -3.1584861 2.0394177 14
18.791283 -18.938353 1.7512718 13
19.662275 -3.1620843 2.2993414 15
18.662823 -18.800978 2.0509727 14
19.414425 -10.572864 0.39805335 10
19.471825 -10.578735 0.62233788 11
19.497686 -10.592974 0.8535651 13
18.928242 -18.936728 1.0985019 11
18.918753 -18.939489 1.4275638 12
19.901104 -3.1559811 1.6356421 12.5
19.886625 -3.1606517 2.051044 14
18.909351 -18.944269 1.7620538 13
19.886318 -3.1750188 2.3301232 15
19.133305 -18.941992 1.1125249 11
19.124538 -18.947645 1.4442247 12
20.314648 -2.7643256 1.6050925 12
20.300993 -2.7741394 1.8962442 13
19.115379 -18.95363 1.7812815 13
20.298948 -2.7787852 2.195323 14
20.400618 -3.1585126 2.4182575 15
19.540092 -19.516607 1.1963332 11
20.598387 -2.7893443 1.6324053 12
19.5944 -19.521009 1.5567141 12
20.565199 -2.7901123 1.9270025 13
19.521641 -19.530523 1.9131702 13
20.563425 -2.7940032 2.2306509 14
20.716846 -3.3718638 2.4204898 15
20.546633 -3.2529519 2.4196517 15
20.507736 -9.2162161 0.31503728 8.333333
20.521955 -9.2306547 0.55596703 10
19.815506 -19.560835 1.2202778 11
19.898289 -19.61689 1.5945041 12
19.780445 -19.583405 1.9462531 13
20.905544 -3.5133216 2.4208207 15
20.944418 -8.9600906 0.40058002 8.666667
20.918613 -8.9575253 0.61275554 10
20.064856 -19.599348 1.2422992 11
20.072004 -19.624538 1.6105508 12
19.996441 -19.611116 1.9717968 13
20.082184 -19.45112 1.9546168 13
21.113192 -3.6828914 2.4200311 15
21.034496 -3.6167445 2.4204457 15
20.387276 -19.639168 1.6407781 12
20.35811 -19.294298 1.9584339 13
20.542673 -19.210629 1.965304 13
20.766201 -19.665264 1.679734 12
20.753971 -19.101482 1.9721738 13
20.985958 -19.678913 1.7028589 12
20.914837 -19.010397 1.9768487 13
21.057062 -18.941862 1.9833505 13
22.201115 -2.9255853 2.4743774 14
22.481304 -3.2135119 2.4697454 14
22.33556 -3.0647852 2.4714127 14
22.711342 -3.4565856 2.4676354 14
23.735586 -7.8948951 2.3608429 15
23.736818 -7.6423173 2.3858855 15
23.75235 -7.3376126 2.422441 15
23.764137 -7.0467601 2.4592736 15
23.970753 -7.1099072 2.2100902 14
24.055738 -11.332016 0.40089819 8
24.053749 -11.124696 0.40429139 8
24.057486 -10.991387 0.40676421 8
24.110697 -9.9494219 0.42867747 8
24.141918 -9.4517212 0.44029829 8
23.9324 -14.78779 0.66060042 9
24.114073 -11.46409 0.67422915 9
24.115301 -11.231852 0.67675149 9
24.120123 -10.93734 0.68063813 9
24.134352 -10.668034 0.68556786 9
24.173334 -9.9874802 0.70043916 9
24.18671 -9.7237291 0.70689315 9
24.202284 -9.431078 0.71471083 9
24.21497 -9.1229839 0.72317028 9
24.20083 -8.1055517 0.75093591 9
24.089128 -11.478686 0.94681591 10
24.104548 -11.236033 0.94961047 10
24.116943 -10.941853 0.95298457 10
24.135296 -10.639044 0.95826483 10
24.151188 -10.335866 0.96418273 10
24.164789 -10.038703 0.97086281 10
24.178732 -9.7412405 0.97850186 10
24.192009 -9.435215 0.98737895 10
24.214809 -9.0398054 1.000973 10
24.252337 -8.522891 1.0222017 10
24.266937 -8.0920496 1.0401192 10
24.266891 -7.9616261 1.0453984 10
24.286198 -7.6386409 1.0614642 10
24.312248 -7.0280938 1.0933228 10
24.328739 -6.7367082 1.1101774 10
24.094315 -11.484171 1.2232717 11
24.105656 -11.24052 1.2244411 11
24.111412 -10.945881 1.2256569 11
24.129856 -10.642038 1.2304471 11
24.144262 -10.338934 1.2359109 11
24.158104 -10.041567 1.2427951 11
24.17461 -9.7437744 1.2513839 11
24.190567 -9.4442511 1.2614703 11
24.207108 -9.1428967 1.272983 11
24.220057 -8.8367424 1.285652 11
24.234535 -8.5411177 1.2994025 11
24.25165 -8.23946 1.3152721 11
24.272099 -7.8728266 1.3361242 11
24.281052 -7.6188226 1.3509148 11
24.295973 -7.342 1.3687631 11
24.307259 -7.0520015 1.3879894 11
24.321115 -6.6655917 1.4149356 11
24.090586 -11.489265 1.5000007 12
24.096813 -11.244392 1.4990444 12
24.10347 -10.949605 1.4990507 12
24.120106 -10.613658 1.5960139 12.333333
24.131844 -10.344856 1.6469216 12.5
24.146997 -10.078485 1.6072624 12.333333
24.166586 -9.7477875 1.5247858 12
24.182837 -9.4482327 1.5359982 12
24.198534 -9.1467438 1.5488231 12
24.215139 -8.8402586 1.5640082 12
24.226425 -8.5450811 1.5793037 12
24.244057 -8.243269 1.5980031 12
24.259806 -7.9510779 1.6172711 12
24.274326 -7.6516461 1.6385221 12
24.287127 -7.3460641 1.6612363 12
24.30225 -7.0546589 1.6850834 12
24.314072 -6.668859 1.7171026 12
23.835707 -15.379574 1.963514 13
24.075212 -11.492059 1.7789335 13
24.084587 -11.244451 1.9204522 13.5
24.091261 -10.95857 1.9185083 13.5
24.105091 -10.686752 1.9682413 13.666667
24.119795 -10.36459 2.0677078 14
24.138832 -10.025451 1.9821739 13.666667
24.153366 -9.7539988 1.9440467 13.5
24.166632 -9.4546442 1.9562143 13.5
24.178755 -9.1944685 1.9685637 13.5
24.199007 -8.8453608 1.8445852 13
24.210905 -8.5503988 1.8621022 13
24.227983 -8.24897 1.8834553 13
24.242031 -7.957468 1.9052868 13
24.258301 -7.657598 1.9303744 13
24.274147 -7.3512826 1.9575508 13
24.288612 -7.0604844 1.9852507 13
24.299669 -6.6750607 2.0225909 13
23.677422 -16.944971 2.1002386 13
24.078833 -11.45706 2.0666525 14
23.840706 -11.141789 2.2770448 15
23.876232 -10.947183 2.2839625 15
23.915554 -10.651952 2.292897 15
23.942133 -10.332396 2.3009281 15
23.958336 -10.034915 2.3094583 15
23.964859 -9.7439413 2.317682 15
23.958775 -9.4591827 2.3252742 15
24.180431 -9.1415014 2.115164 14
24.194014 -8.8559752 2.132647 14
24.208755 -8.5534496 2.1534445 14
24.223059 -8.2523346 2.1768939 14
24.243156 -7.868547 2.2106152 14
24.259109 -7.5546808 2.2408659 14
24.269009 -7.3465934 2.2621746 14
24.275057 -7.0233455 2.295202 14
24.293516 -6.6762309 2.336148 14
23.947126 -14.704754 0.66101193 9
23.865477 -17.000053 1.0450062 10
23.906708 -15.387853 0.9902609 10
23.925802 -15.076809 0.9826172 10
23.937283 -14.830454 0.97671854 10
23.949862 -14.626993 0.97242141 10
23.830881 -17.090107 1.0454004 10
23.902077 -15.364285 1.3147055 11
23.91625 -15.080613 1.3020562 11
23.931055 -14.835935 1.2921945 11
23.828094 -17.101961 1.4087578 11
23.834444 -16.958914 1.4001962 11
23.888405 -15.366256 1.6398176 12
23.909569 -15.020363 1.6186113 12
23.925844 -14.758812 1.6036125 12
23.931583 -14.634753 1.5964713 12
23.808552 -17.098782 1.7702771 12
23.815216 -16.956083 1.7584486 12
23.885714 -15.356462 1.970806 13
23.901033 -15.092192 1.949325 13
23.912981 -14.845939 1.9299413 13
23.922201 -14.63961 1.9141026 13
23.769808 -16.8549 2.1059058 13
-2.7038932 -8.3059769 1.8364989 11.1795
-2.6872149 -7.9714785 1.845441 11.179
-2.6692226 -7.6331553 1.8551099 11.1785
-0.91225082 -16.641085 1.6533475 11.0125
-1.1447006 -16.036182 1.6592096 11.0115
-0.3387278 -17.805548 1.6398199 11.0145
2.1073823 -16.80105 0.85602808 10.01475
2.1481097 -16.326536 0.84593922 10.014
2.1340454 -16.032686 0.84213126 10.0135
2.1591284 -15.587067 0.83490831 10.01275
2.2196991 -14.855553 0.82396346 10.0115
2.3589246 -14.533777 0.81416637 10.011
2.2195828 -17.852076 1.4427662 11.0165
2.2374837 -17.521025 1.428508 11.016
2.2505257 -17.202309 1.4156839 11.0155
2.1458704 -15.74468 1.3783233 11.013
2.3484688 -14.547553 1.3344727 11.011
2.2132595 -18.183514 1.4567693 11.017
2.5127056 -18.337223 1.4411634 11.0175
2.7975323 -14.407424 1.7973861 12.011
2.7723227 -18.844227 1.445398 11.0185
2.6570637 -18.581076 1.4414873 11.018
3.119771 -14.820996 1.7727417 12.012
3.003958 -14.599972 1.778944 12.0115
3.2513809 -18.862829 1.4124665 11.019
3.4883337 -15.603297 1.7610465 12.01375
3.3392406 -15.264509 1.7638365 12.013
3.2530944 -15.034018 1.7648994 12.0125
3.710562 -18.878998 1.3813995 11.0195
3.919508 -16.35055 1.7488741 12.0155
3.7521625 -16.023476 1.7508621 12.01475
4.1485729 -18.891571 1.3521801 11.02
4.1384578 -16.646261 1.7413011 12.016251
4.7235308 -9.3622904 1.9610198 13.0005
4.5688343 -18.905859 1.3248103 11.0205
4.4671545 -17.01815 1.7282352 12.01725
5.2182813 -9.1877947 1.8864695 13
4.9659996 -7.3285475 2.0163138 13.1755
4.9701209 -18.920599 1.2992764 11.021
4.9361835 -17.869967 1.7362974 12.01925
5.0573316 -17.076296 1.6708983 12.018
5.3527942 -18.936724 1.2755717 11.0215
5.279633 -18.217064 1.7280909 12.02025
5.5860815 -13.812435 1.8602732 13.01175
5.4600425 -13.537324 1.8674719 13.011
5.7248731 -18.94873 1.2528361 11.022
5.7731719 -18.291632 1.6873423 12.021
5.9272022 -14.537568 1.8471256 13.01375
5.787291 -14.16406 1.8472438 13.01275
6.0789371 -18.963669 1.2319176 11.0225
6.1284022 -18.306805 1.655944 12.0215
6.215179 -15.0635 1.8386238 13.01525
6.091259 -14.792511 1.8386532 13.0145
6.8609848 -7.4113903 2.0730922 14.1745
7.0346279 -9.1264296 -0.062579058 8.1794996
6.4228301 -18.975758 1.2119566 11.023
6.46 -18.630909 1.6529018 12.0225
6.2948127 -18.468853 1.6540512 12.022
6.7161889 -15.803168 1.823994 13.0175
6.5259171 -15.570775 1.8316786 13.01675
6.4188099 -15.290811 1.8257345 13.016
7.5387483 -9.1769543 0.2546767 9.1794996
6.745698 -18.991272 1.6594356 12.0235
6.635129 -18.783152 1.6506933 12.023
7.0275536 -16.307377 1.8257143 13.019
6.893857 -16.041033 1.8201001 13.01825
7.2843895 -13.118347 1.9232471 14.0115
7.2724528 -12.945018 1.916159 14.011
7.1806483 -19.049187 1.6289086 12.02425
7.3545003 -16.677252 1.8186455 13.02025
7.1560693 -16.458567 1.8229426 13.0195
7.6689024 -13.961067 1.9091121 14.01425
7.4879556 -13.581002 1.9145005 14.013
7.4055328 -13.253068 1.9086274 14.012
8.0499802 -8.7965155 2.0594583 15.178
8.0706911 -8.4248075 2.0777841 15.17675
7.6454778 -19.055475 1.5925162 12.025
7.7475047 -17.117811 1.8151135 13.021749
7.5702648 -16.883003 1.8122842 13.021
8.0241613 -14.623561 1.9032398 14.0165
7.898829 -14.406647 1.9052787 14.01575
7.8226914 -14.165341 1.8980831 14.015
8.026576 -9.60602 2.0298338 15.00075
8.143981 -9.2479181 2.0155451 15.119499
8.0561066 -8.7970819 2.0583446 15.177999
8.1466522 -8.2136517 2.0752635 15.176
8.2286081 -8.0054054 2.0728738 15.17525
7.9495902 -19.049288 1.5685387 12.0255
8.0344849 -17.257624 1.7965424 13.0225
8.3786554 -15.190799 1.9009088 14.0185
8.1748848 -14.729465 1.8878629 14.017
8.5762405 -12.518922 1.9508203 15.011
8.3250847 -19.114094 1.5469607 12.02625
8.4374962 -17.947803 1.8298973 13.0245
8.3182898 -17.791887 1.8244686 13.024
8.6985226 -15.57583 1.8932056 14.02
8.5693884 -15.363871 1.8894006 14.01925
8.6122789 -14.752043 1.8178217 14.01775
8.9259863 -13.464341 1.9496107 15.0145
8.8142576 -13.197627 1.9496431 15.0135
8.6443615 -12.801099 1.9551576 15.012
9.656291 -9.2252483 -0.027756033 8.1789999
8.7436094 -19.114315 1.5170563 12.027
8.865963 -18.205605 1.8172458 13.02575
9.0336056 -16.05365 1.9010332 14.021749
8.8835573 -15.748093 1.885474 14.02075
9.132803 -13.924503 1.9534887 15.016251
9.0142145 -13.661747 1.9504241 15.01525
9.6917648 -9.2354155 0.20869894 9.1789999
9.1386957 -19.115484 1.4903091 12.02775
9.1950836 -18.419971 1.8123558 13.026751
9.4412146 -16.472095 1.8987951 14.0235
9.3337955 -16.233768 1.881557 14.02275
9.4438229 -14.410653 1.948469 15.01825
9.3238907 -14.146657 1.9402102 15.01725
10.107357 -12.049077 0.044762217 8.5112495
9.5458279 -19.085522 1.4606428 12.0285
9.5499887 -18.442036 1.782493 13.0275
9.7642117 -14.454273 1.8929323 15.019
10.562329 -12.07059 0.04390176 8.5120001
10.61097 -12.059249 0.47796658 10.512
10.179013 -18.553629 1.3642859 12.029
10.017571 -18.454256 1.7434744 13.0285
10.970617 -12.085103 0.043302909 8.5127497
11.151641 -9.2841768 0.084681191 8.6785002
10.503234 -18.569139 1.3467654 12.02975
10.487452 -18.58563 1.7231643 13.02975
11.329369 -12.100473 0.042873554 8.5135002
10.889046 -18.638571 1.5170112 12.53075
11.652243 -12.113244 0.042697266 8.5142498
11.300242 -17.54088 1.8458889 14.03
11.371781 -16.300598 1.928229 15.02775
11.371728 -15.971271 1.8667743 15.027
12.124036 -12.129252 0.042645559 8.5155001
12.135427 -9.3261318 0.1567886 9.1780005
12.110298 -12.140956 0.29747364 10.0155
11.592341 -17.978914 1.8955493 14.031499
11.763934 -16.598587 1.9361432 15.0295
11.55457 -16.408051 1.9247161 15.0285
12.523009 -12.148408 0.12160917 9.0167503
12.814723 -9.3533192 0.14217243 9.1774998
12.294683 -12.137912 0.28891519 10.016
12.027972 -18.198347 1.8996108 14.033
12.121896 -16.82291 1.9403404 15.031001
12.871284 -12.161595 0.11702666 9.0180006
12.394481 -18.369518 1.9048972 14.03425
12.567977 -17.033876 1.9389321 15.03275
12.402946 -16.897522 1.9260994 15.032
13.29304 -12.176039 0.11203761 9.0197496
13.425936 -9.3766232 0.16597992 9.5101662
12.84548 -18.551096 1.9114982 14.035749
12.61918 -18.465145 1.9083587 14.035
12.893938 -17.160507 1.9371505 15.034
13.696935 -12.194041 0.10815565 9.0217505
13.865469 -9.3953543 0.17598331 9.5761995
13.195814 -18.58563 1.8998368 14.03675
13.259079 -17.371824 1.9552019 15.0355
13.295675 -17.285597 1.9334574 15.0355
14.078135 -12.208957 0.13762338 9.309679
14.339797 -9.4134369 0.16192821 9.4609289
14.011538 -12.200432 0.33788079 11.0235
13.680867 -17.440813 1.94332 15.037
14.313254 -12.218143 0.1589447 9.5255003
14.717311 -9.4306355 0.48012415 14.174
14.722365 -9.3961763 0.48225546 14.1735
14.162571 -17.565117 1.9473228 15.03875
15.169398 -2.3628356 2.212388 15.1415
15.005161 -9.4525223 0.41364387 14.173
15.382317 -2.4168077 2.1953423 15.14075
15.349525 -10.257204 0.2703076 13.0105
15.453134 -10.094807 0.22140205 12.29729
15.442039 -9.4597034 0.28112704 13.246576
15.892922 -4.6766367 0.41304758 9.1400003
15.746034 -4.6042361 0.32128394 8.6407499
16.285889 -5.6712341 0.35199577 9.1379995
16.078869 -4.8773313 0.31518 8.6389999
16.337883 -4.5411935 0.34144339 8.6374998
15.797325 -16.311028 0.017862769 8.0439997
15.798998 -16.243204 0.23909287 9.0439997
15.866678 -14.795887 0.10882499 8.5434999
15.909486 -13.857252 0.16580167 9.0430002
15.941868 -13.205551 0.14576267 9.0424995
15.964848 -12.736001 0.18089366 9.5419998
15.98312 -12.378817 0.14928517 9.0415001
16.140331 -8.85746 0.25785208 11.700722
16.142822 -8.6421442 0.37954482 13.477
16.170048 -8.3804178 0.48417604 14.142
15.727818 -17.878319 1.9953268 15.0445
17.68973 -9.3089123 0.29341397 10.938333
17.712467 -9.0081367 0.29728112 10.33558
17.738462 -8.6257563 0.29169875 9.6145
17.768343 -8.1258469 0.32204002 9.6187506
17.782881 -7.8185711 0.33954486 9.5207005
17.806889 -7.4201536 0.32670939 9.479785
17.828047 -7.0498595 0.37786639 9.6796112
17.846235 -6.7151084 0.31014451 8.8751249
17.911633 -5.4021339 0.43454292 9.1280003
17.931173 -5.0576758 0.37111253 8.6285
17.947557 -4.6723504 0.39224675 8.6289997
17.965191 -4.2346511 0.41631976 8.6295004
17.828878 -6.9208932 0.55714041 11.1245
17.915798 -5.3735251 0.60427165 10.128
16.941509 -17.484346 1.9336699 15.049
17.13028 -18.990545 0.052955762 8.0489998
17.329082 -17.898085 0.062205203 8.0500002
17.361504 -17.048504 0.065436974 8.0504999
17.495855 -14.189555 0.15396714 8.55375
17.508461 -13.801257 0.21910566 9.0544996
17.523867 -13.441727 0.19186109 8.9125004
17.535597 -13.009606 0.21137539 9.1815624
17.552332 -12.605291 0.22164035 9.4216824
17.56673 -12.190829 0.22065045 9.2952948
17.580706 -11.860594 0.24447189 9.5619993
17.70084 -9.3081322 0.40296695 12.938251
17.706631 -9.0803204 0.47718778 13.608749
18.040768 -5.2445846 0.28021249 8.1274996
18.339655 -4.9434428 0.30215919 8.1265001
17.740334 -9.0766983 0.51443642 14.1085
17.792105 -8.6588202 0.53808999 13.1135
17.235973 -17.803013 2.0284929 15.05
17.720201 -18.156616 0.074671276 8.0512505
18.180283 -12.474084 0.32437441 10.064
18.256544 -12.338798 0.19445366 8.8152494
18.765093 -4.0187545 0.49800199 8.7928343
17.764673 -19.474302 1.424894 12.051
17.756872 -19.490723 1.771695 13.051
17.637304 -17.705536 2.0313294 15.051501
18.145601 -18.450331 0.088468216 8.0524998
17.944023 -18.177994 0.082250819 8.052
18.575289 -13.226091 0.2860477 9.2632999
18.328629 -12.58012 0.11572283 8.0644999
18.314613 -12.373337 0.27712092 9.5655003
18.752689 -9.2921133 0.34350455 10.0995
18.730509 -9.2547693 0.26003462 9.1000004
17.917521 -17.725452 2.0578268 15.0525
18.101217 -17.60009 2.0434 15.05325
18.301622 -18.453819 0.09388873 8.0530005
18.731688 -12.25283 0.13487576 8.0690002
18.834698 -10.550677 0.27158579 9.0845003
19.094479 -9.0987043 0.29512146 9.1005001
18.442831 -19.22208 0.92921644 10.553
18.42696 -19.215199 1.4288399 12.053
18.43058 -19.446266 1.8079686 13.053
18.37566 -17.576275 2.0634608 15.05425
19.292946 -13.211771 0.22766563 8.5672503
19.385752 -12.589409 0.36766759 9.5707502
19.341537 -12.441969 0.18747918 8.2712994
19.376207 -11.946409 0.16619021 8.0745001
19.540884 -10.577825 0.74600226 12.086
18.842077 -18.686209 2.0425298 14.05475
18.871283 -17.465273 2.0902219 15.056
19.998268 -3.1536837 2.3505573 15.123
19.550365 -13.214499 0.32033569 9.0685005
19.485411 -12.541975 0.44500297 10.0715
19.504297 -12.367554 0.16803953 8.0725002
19.591732 -11.939642 0.17609616 8.0754995
19.103813 -18.685894 2.0676124 14.0555
19.307047 -18.540073 2.0594022 14.05625
19.30562 -17.261656 2.0965071 15.05775
19.938345 -13.298468 0.29150134 8.7364998
20.381971 -9.4205885 0.25435996 8.0955
20.454111 -9.3053436 0.33139446 8.5962505
20.4585 -8.314786 0.31515643 8.3028002
20.820097 -2.8154519 2.1073031 13.621
19.604736 -18.438581 2.0718462 14.05725
19.74649 -17.078627 2.1157482 15.059501
20.538717 -9.4739008 0.30845809 8.4283333
20.538029 -9.2387094 0.44556826 9.3466253
20.808298 -8.3141689 0.46253493 9.1020002
20.727486 -8.0847969 0.62840021 10.1035
21.072906 -2.8318801 2.1411669 13.62025
19.8993 -18.331869 2.0854211 14.05825
20.110949 -18.03668 2.0550933 14.05925
20.248934 -17.785179 2.025538 14.06
20.10111 -16.873384 2.1244223 15.061
20.794157 -13.288675 0.31299087 8.573
20.936924 -9.0312395 0.44999027 9.0974998
21.122444 -8.9504642 0.38135648 8.5977497
21.247362 -8.3419342 0.49695933 9.1009998
21.244091 -8.3437481 0.6739198 10.101
21.396769 -2.8497357 2.133168 13.452667
20.497444 -17.773438 2.0571847 14.06075
20.402046 -16.714439 2.1393473 15.06225
20.63126 -16.567474 2.1481247 15.06325
21.391245 -3.7382951 2.4585669 15.1175
21.506674 -2.862268 2.3623304 14.119
21.225054 -13.367582 0.4411675 9.0740004
21.690195 -8.3971863 0.34132642 8.1000004
21.704844 -8.1911192 0.34714204 8.1009998
21.465336 -8.3678017 0.69825083 10.1005
21.791517 -2.8766756 2.0803788 13.11825
20.813072 -17.874626 2.1202219 14.0615
20.914381 -17.732841 2.1093042 14.062
20.967234 -16.333817 2.1619518 15.06475
21.150223 -16.238338 2.1779733 15.0655
21.869577 -4.4452505 2.4031003 15.1145
21.952679 -3.9551165 2.526655 15.1155
21.795191 -3.8068433 2.5259409 15.11625
21.880444 -2.8818254 2.4224184 14.118
21.629519 -13.395778 0.47145545 9.0749998
21.269514 -19.63168 1.7230612 12.06025
21.214462 -18.95129 2.0012069 13.061
21.143484 -17.66065 2.130842 14.06275
21.386625 -17.458689 2.1334288 14.06375
21.334654 -16.031303 2.174885 15.066501
21.505692 -15.812578 2.1690195 15.0675
22.28915 -4.4246182 2.5020545 15.1135
22.157942 -4.1540289 2.5291612 15.1145
22.309036 -8.3288355 0.47744396 8.5994997
21.421085 -18.961519 2.0284579 13.0615
21.63591 -18.974857 2.0578125 13.062
21.729067 -17.263824 2.15643 14.065
21.741076 -15.672494 2.193815 15.068501
21.988062 -15.439762 2.2076423 15.06975
22.677263 -4.8399167 2.5111971 15.1115
22.492353 -4.6243215 2.5092256 15.1125
22.747881 -10.503508 0.34797519 8.0892506
22.712137 -10.280308 0.35034651 8.09025
22.572803 -8.3723669 0.60414219 9.099
22.037119 -18.93577 2.1051624 13.063
22.080017 -16.950428 2.1657124 14.066501
22.319267 -16.750181 2.1771476 14.0675
22.218203 -15.262649 2.2306309 15.07075
22.392382 -14.96247 2.2245274 15.072001
23.102594 -5.2357235 2.5438895 15.1095
22.87364 -5.0476589 2.5205848 15.1105
22.877607 -3.6594057 2.4581966 14.114
23.008551 -8.2610655 0.40792817 8.099
22.449629 -18.72555 2.1320739 13.06425
22.554478 -16.543108 2.1897166 14.0685
22.779787 -16.3262 2.2010438 14.0695
22.630394 -14.787781 2.2554793 15.073
22.738045 -14.527113 2.2454364 15.074
23.420588 -8.2860031 0.42716473 8.0985003
22.807339 -19.746138 1.492606 11.0635
22.686453 -19.767658 1.8945243 12.06325
22.668446 -18.552694 2.1394684 13.065
22.915911 -18.27194 2.1384394 13.065999
22.896715 -16.178694 2.2031083 14.07
23.166357 -16.001499 2.2330492 14.071
22.958126 -14.266 2.2663138 15.07525
23.904301 -10.939917 0.3963246 8.0880003
23.891066 -10.807451 0.39800173 8.0885
23.93038 -10.225072 0.67146599 9.0907497
23.055805 -19.753828 1.5179155 11.064
23.192209 -19.793072 1.9575483 12.06425
23.288052 -17.455532 2.0917764 13.06825
23.439304 -14.937479 2.1584482 14.07425
23.60199 -14.685876 2.16681 14.07525
23.207674 -18.048895 2.1538754 13.067
23.266571 -17.837053 2.1360476 13.0675
23.308321 -15.811755 2.2372925 14.07175
23.374739 -15.461841 2.2068732 14.07275
23.389925 -15.183442 2.1762547 14.0735
23.787838 -11.373198 2.2619336 15.0865
23.81144 -11.243965 2.265219 15.087
23.949242 -9.1397924 2.3304055 15.094999
23.789469 -8.1031065 2.3523016 15.099
23.92087 -15.140908 0.9800567 10.0745
23.734524 -19.07091 1.1224555 10.06625
23.759897 -18.595871 1.1018666 10.067
23.771088 -18.310259 1.0895295 10.0675
23.790941 -17.903452 1.0728743 10.06825
23.814711 -17.391781 1.0527389 10.06925
23.870596 -16.137522 1.1789947 10.572
23.883554 -15.825457 1.1659399 10.57275
23.895536 -15.525419 1.153968 10.5735
23.913851 -15.145449 1.3008202 11.0745
23.54911 -19.734653 1.566663 11.065
23.712185 -19.429146 1.5597998 11.06575
23.734314 -18.960205 1.5261347 11.0665
23.75399 -18.667301 1.5063021 11.067
23.774523 -18.213161 1.4753442 11.06775
23.793779 -17.782644 1.4469293 11.0685
23.813684 -17.404539 1.423295 11.06925
23.836399 -16.689617 1.5564692 11.57075
23.848385 -16.281202 1.5852098 11.738334
23.862883 -15.82714 1.6665484 12.07275
23.879763 -15.530781 1.6463333 12.0735
23.900845 -15.147772 1.6217027 12.0745
23.556732 -19.765009 1.9992224 12.065
23.695366 -19.429279 1.9808586 12.06575
23.721792 -18.965425 1.9357055 12.0665
23.739138 -18.669395 1.9076804 12.067
23.757496 -18.242247 1.8674157 12.06775
23.777971 -17.783157 1.8255006 12.0685
23.793642 -17.400631 1.7917 12.06925
23.57032 -17.061857 2.0912004 13.0695
23.828335 -16.58742 2.0819182 13.071
23.842171 -16.257498 2.0487912 13.07175
23.861624 -15.839235 2.0089958 13.07275
23.743145 -15.439577 1.9473467 13.0735
23.898151 -15.157576 1.950125 13.0745
23.586857 -19.692837 1.0212508 10
22.334236 -19.667727 1.3723841 11
23.583099 -19.712734 1.4823296 11
23.579353 -19.737091 1.9459559 12
23.073303 -19.625971 0.9827835 10
22.145082 -19.553511 0.91827017 10
21.198116 -19.634249 1.2830685 11
22.129606 -19.581411 1.781701 12
21.188419 -19.645313 1.7032782 12
19.917431 -19.592722 1.598323 12
15.584051 -19.327311 0.25770852 9
15.383021 -19.384785 0.63513082 10
15.08995 -19.302225 0.62702519 10
15.375773 -19.413902 1.0172666 11
13.99479 -19.336582 1.0064862 11
12.725735 -19.334892 1.0201088 11
11.568871 -19.270414 1.0411633 11
15.368685 -19.424635 1.3995906 12
13.992836 -19.327751 1.3921908 12
11.568127 -19.270241 1.453969 12
15.36136 -19.436359 1.7879893 13
13.190934 -19.29678 1.8011209 13
10.964767 -19.089148 1.0463579 11
10.932072 -19.150436 1.4709094 12
19.070948 -18.909958 1.0913522 11
19.177519 -18.923599 1.471396 12
19.288063 -18.951292 1.8620787 13
21.769695 -18.89444 2.0858676 13
11.431712 -18.552395 1.7820994 13
14.298663 -18.184385 1.958943 14
14.503953 -16.816269 2.0037098 15
18.353497 -13.187119 0.069101609 8
18.351587 -13.196757 0.23944923 9
18.329935 -13.154072 0.40807426 10
18.239775 -12.398222 0.081295587 8
18.290707 -12.418087 0.22706994 9
15.920981 -12.285134 0.087043516 8.5
14.527151 -12.20438 -0.0017055605 8
18.273781 -12.390882 0.37046674 10
15.938157 -12.287246 0.28320003 10
17.556934 -11.751192 0.30183771 10
18.757175 -11.313137 0.18101136 8.5
18.745512 -11.308875 0.36024985 10
18.741447 -11.316923 0.60112035 11
18.739346 -11.334995 0.78816229 12.5
18.751741 -11.255781 0.96490997 14
18.786612 -10.493687 0.24075471 9
18.779112 -10.495024 0.54087901 11
19.203379 -10.538128 0.83818638 13
18.782564 -10.508585 0.74905694 13
18.773434 -10.51926 0.85341805 14
19.202023 -10.542795 0.95622194 14
16.818617 -9.7346287 0.17968553 9.5
16.73876 -9.7079945 0.24179366 11
16.03525 -9.4591227 0.22026414 11
17.627729 -9.3140802 0.23247865 9.5
17.631618 -9.2553787 0.37807095 13
17.644878 -9.0823946 0.40833884 14
17.655563 -8.9165621 0.4009746 14
17.717455 -8.0245056 0.45489997 13.5
17.753462 -7.954083 0.26874873 9
17.729532 -7.860477 0.50939184 14
17.743341 -7.6886277 0.54698014 14
17.757288 -7.4289479 0.54777837 13
17.781475 -7.0572572 0.29028934 9
17.792755 -6.9728904 0.22864348 8
17.785501 -6.9925404 0.50411826 11
16.278006 -5.8461504 0.2941722 8.5
16.273603 -5.8990674 0.48135418 10.5
17.893936 -5.4283509 0.3704268 8.5
17.894176 -5.4529886 0.54712266 10
16.361887 -4.5496593 0.31690073 8
15.382361 -4.4075594 0.30371433 8
14.932193 -4.3925972 0.29615411 8
16.354568 -4.5423875 0.53089571 9.5
15.380904 -4.4230742 0.45509624 9
14.931574 -4.4082646 0.45331219 9
18.933392 -4.0418229 0.41575739 8
18.923298 -4.0577435 0.59205437 9
22.148561 -3.4901156 2.4557991 15
18.187885 -3.051626 0.44464898 8
18.198122 -3.0754325 0.64420217 9
19.73204 -3.164079 0.92635226 10
19.280701 -3.150842 0.8983897 10
18.316776 -3.081701 0.85210776 10
18.15785 -3.0564849 0.84740084 10
19.705246 -3.1633632 1.1461985 11
18.15197 -3.0596178 1.0505074 11
19.766657 -3.1820767 1.37233 12
18.160645 -3.0893085 1.250536 12
18.141518 -3.068398 1.4618384 13
19.937029 -3.191762 1.6194276 13
19.194038 -3.1625776 1.7618988 14
18.901941 -3.1543522 1.7291878 14
19.931164 -3.1983223 1.8528674 14
18.131714 -3.0740275 1.8875121 14
19.926098 -3.2035551 2.0883541 15
19.21125 -3.169579 1.9880271 15
21.621513 -2.9004753 2.1952169 14
21.491035 -2.8898969 2.4561961 15
11.405584 -2.9514058 2.249897 15
11.688667 -2.6817694 0.87573415 10
11.297734 -2.6511517 0.8917464 10
11.482039 -2.6707518 1.1613849 11
20.659452 -2.8507929 1.7828629 13
11.681243 -2.6727476 1.4245607 12
11.277831 -2.6688356 1.4571121 12
11.672358 -2.6823001 1.7027842 13
11.34738 -2.683147 1.7358688 13
20.669403 -2.8346601 2.0494275 14
20.660305 -2.8458195 2.3093948 15
11.255656 -2.6850166 2.039571 14
18.189669 -2.473829 0.47516763 8
17.460653 -2.4308245 0.45732495 8
18.180328 -2.4885905 0.69438416 9
17.45204 -2.4557908 0.67235267 9
16.700504 -2.4129379 0.65507978 9
18.174957 -2.4919217 0.91654903 10
17.446274 -2.4587648 0.89084285 10
18.171293 -2.4883745 1.1404536 11
17.461815 -2.4572957 1.111492 11
18.176424 -2.535567 1.3568702 12
17.434481 -2.4578846 1.331437 12
12.905622 -2.4319556 1.1253392 11
12.930363 -2.4461648 1.3778751 12
18.155748 -2.5139201 1.5880395 13
17.426281 -2.4790733 1.5514997 13
16.65222 -2.4413149 1.531155 13
12.922937 -2.4560339 1.6364164 13
18.150682 -2.5153987 1.8205754 14
17.441465 -2.4872687 1.7795545 14
18.141462 -2.5290241 2.0510459 15
17.413942 -2.4880531 2.0089204 15
16.682165 -2.4553649 1.9871064 15
16.707047 -2.3827231 0.44062617 8
16.468578 -2.3700361 0.43553817 8
16.462736 -2.3953424 0.65097028 9
16.739817 -2.2428677 0.89580989 10
16.456343 -2.403446 0.86917472 10
14.503771 -2.2837846 0.86696768 10
16.686741 -2.4166896 1.0922573 11
16.448631 -2.4043291 1.088737 11
13.515303 -2.2176204 0.88368076 10
12.406311 -2.3001318 0.89603049 10
16.701929 -2.4252675 1.3116517 12
16.464016 -2.4171176 1.3077188 12
14.495711 -2.2926061 1.1019566 11
13.505305 -2.2243624 1.134596 11
12.981341 -2.2099364 1.1540784 11
14.508666 -2.2873967 1.3398803 12
16.436003 -2.4293821 1.5291845 13
14.500669 -2.293319 1.5804858 13
16.688858 -2.4373605 1.7619053 14
16.429129 -2.4300606 1.7580982 14
14.492322 -2.298712 1.8260236 14
14.244884 -2.3040128 1.8378252 14
16.42267 -2.4434249 1.985104 15
17.360704 -2.1521931 0.46950072 8
16.844061 -2.1108141 0.45850062 8
17.354858 -2.1531229 0.69601887 9
16.835894 -2.1715436 0.67985249 9
17.349688 -2.1473074 0.92587006 10
16.876131 -2.1224122 0.91436672 10
17.364491 -2.1567774 1.1553116 11
16.845583 -2.1336241 1.1416844 11
14.590567 -2.015594 0.89879376 10
14.159866 -2.1009662 0.89047676 10
12.733864 -2.1740637 0.90243262 10
11.960151 -2.1378059 0.92503417 10
14.151863 -2.1112592 1.1354903 11
11.720439 -2.1219769 1.2210902 11
17.335047 -2.1643395 1.3841559 12
16.90539 -2.1757088 1.36625 12
14.140931 -2.1106884 1.3834317 12
13.536657 -2.0845008 1.4111189 12
12.994449 -2.2041004 1.4162984 12
17.311115 -2.1174192 1.6294494 13
16.832838 -2.1232622 1.6099651 13
14.136696 -2.1278594 1.6319658 13
12.178523 -2.1559622 1.4732476 12
11.709352 -2.1293373 1.5097085 12
17.347477 -2.1499553 1.8648331 14
13.527144 -2.0900841 1.6719221 13
12.989797 -2.2193754 1.679952 13
12.220368 -2.1908815 1.746209 13
11.704577 -2.1452417 1.8011286 13
17.27182 -2.1589861 2.1014419 15
13.521696 -2.1046119 1.9354814 14
12.950562 -2.2265413 1.9532193 14
12.401407 -2.1919703 2.0142748 14
14.785085 -2.170305 2.0961783 15
14.507751 -2.153825 2.1159122 15
14.148232 -2.2141807 2.1218214 15
12.943254 -2.2376769 2.224983 15
11.683653 -2.187005 2.0938032 14
12.397993 -2.2098746 2.2955587 15
14.624137 -1.9971871 1.1455966 11
14.618199 -2.010128 1.3892778 12
14.613343 -2.026979 1.6357436 13
14.62555 -2.0179715 1.8922795 14
15.014987 0.43980125 1.5245743 11
15.004657 0.43231398 1.8509955 12
23.759111 -19.624008 1.030978 10
23.540741 -19.650799 1.0164038 10
23.1786 -19.629248 0.99017626 10
22.976974 -19.632027 0.97643763 10
22.704109 -19.640102 0.95839041 10
22.408186 -19.642145 0.93894422 10
22.027224 -19.555258 0.91086304 10
21.74411 -19.550745 0.89302182 10
20.900551 -19.582615 0.84471738 10
22.019264 -19.570951 1.3401294 11
21.806562 -19.565863 1.3231726 11
21.502398 -19.552746 1.2991359 11
21.232845 -19.574421 1.2809846 11
20.910187 -19.607937 1.2608016 11
20.60524 -19.580032 1.237872 11
20.309044 -19.560545 1.2170638 11
20.065472 -19.559946 1.2017077 11
19.590418 -19.485247 1.1674995 11
23.752613 -19.639549 1.4927533 11
23.56576 -19.670397 1.4779401 11
23.186396 -19.668413 1.4441637 11
23.005785 -19.667038 1.428425 11
22.701317 -19.661449 1.4022199 11
22.427801 -19.659782 1.3794239 11
22.140574 -19.571453 1.3497776 11
19.683599 -19.495668 1.5710599 12
23.578856 -19.693024 1.9416634 12
23.189968 -19.705057 1.9011204 12
22.930893 -19.698359 1.8734744 12
22.674896 -19.690451 1.8465985 12
22.397942 -19.680975 1.8180944 12
22.010061 -19.583078 1.7705152 12
21.795736 -19.575407 1.7496903 12
21.49321 -19.564667 1.7211366 12
21.191662 -19.599289 1.6985606 12
20.892511 -19.626451 1.6765069 12
20.601397 -19.606014 1.6508082 12
20.306845 -19.591871 1.6266172 12
20.019497 -19.585752 1.604777 12
15.375554 -19.335495 0.25389475 9
15.484581 -19.365461 0.63568598 10
15.184321 -19.304844 0.62836069 10
15.487037 -19.393679 1.0168197 11
15.138929 -19.330235 1.0079718 11
14.83419 -19.321299 1.0052509 11
14.644558 -19.309963 1.0036243 11
14.336936 -19.294485 1.0021353 11
14.051436 -19.305174 1.0036606 11
13.725673 -19.257082 1.0015898 11
13.42312 -19.227495 1.0018291 11
13.136679 -19.26079 1.0079916 11
12.835674 -19.324938 1.0175072 11
12.500178 -19.236763 1.016575 11
12.256506 -19.221296 1.0203686 11
11.930243 -19.240448 1.029483 11
11.543913 -19.220528 1.0382056 11
11.239758 -19.190619 1.0449063 11
11.034745 -19.181204 1.050702 11
15.507972 -19.41132 1.3991464 12
15.227935 -19.334677 1.3879745 12
14.914716 -19.324242 1.3860661 12
14.533397 -19.308567 1.3851483 12
14.254957 -19.293688 1.3853424 12
14.051934 -19.299154 1.3881438 12
13.71489 -19.282816 1.3911054 12
13.410707 -19.257959 1.393793 12
13.128746 -19.276287 1.4022477 12
12.811003 -19.327272 1.4162402 12
12.527216 -19.262333 1.4174775 12
15.50964 -19.430256 1.7877706 13
15.220627 -19.346775 1.7738482 13
14.90711 -19.339687 1.7736583 13
14.611679 -19.330473 1.7744632 13
12.271715 -19.258739 1.4255078 12
11.921892 -19.256641 1.4381822 12
11.566977 -19.241905 1.4510497 12
11.3258 -19.203609 1.4576728 12
11.029689 -19.190882 1.4702731 12
19.593687 -19.21826 1.9253802 13
19.465437 -19.256189 1.9212708 13
14.314024 -19.314545 1.7759957 13
13.915831 -19.322405 1.7846835 13
13.604011 -19.312502 1.7908367 13
13.413675 -19.304224 1.7950776 13
13.116632 -19.220396 1.7925776 13
19.167288 -18.915869 1.0970265 11
19.255589 -18.930914 1.4772077 12
21.725321 -18.894775 2.0809577 13
21.491383 -18.9016 2.0562856 13
21.204218 -18.898949 2.0254087 13
20.892757 -18.88662 1.9920211 13
20.538931 -18.880184 1.956768 13
20.274323 -18.962212 1.9444096 13
19.982218 -19.085217 1.936998 13
19.792156 -19.148695 1.9307173 13
12.816586 -19.070829 1.7819843 13
12.516793 -18.959587 1.7790508 13
12.274671 -18.861523 1.7766055 13
12.167779 -18.814167 1.775382 13
11.874417 -18.666567 1.7709347 13
11.559449 -18.558485 1.7748595 13
23.805157 -18.341928 0.98834664 10
23.817587 -18.381165 1.4172972 11
23.800308 -18.383663 1.8432088 12
15.785996 -18.384933 1.9801323 14
15.504327 -18.369202 1.9764551 14
15.152867 -18.301678 1.9651499 14
14.882888 -18.216141 1.9521648 14
14.515807 -18.188036 1.9540714 14
15.996584 -17.039595 2.0284247 15
15.806474 -17.027781 2.0251057 15
15.505914 -16.95364 2.0097136 15
15.208178 -16.871191 1.9950603 15
14.915672 -16.852711 1.9978446 15
14.618527 -16.840555 2.0047073 15
18.179943 -13.188877 0.14801653 8.5
18.170906 -13.185616 0.4010506 10
18.250082 -12.409776 0.15351985 8.5
15.793722 -12.290824 0.10698973 8.666667
15.526851 -12.283116 0.08113306 8.5
15.222235 -12.27219 0.053905681 8.333333
14.95496 -12.260826 0.096824221 8.666667
14.627419 -12.247293 0.046699073 8.333333
14.393126 -12.234 0.093746319 8.666667
18.229355 -12.406288 0.36853859 10
15.767911 -12.296713 0.2825875 10
15.485694 -12.287667 0.28150758 10
15.281007 -12.277279 0.28163609 10
14.984732 -12.267906 0.28366277 10
14.588423 -12.249165 0.28851759 10
14.347971 -12.239953 0.29276428 10
17.568693 -11.739153 0.18817084 9
17.561596 -11.7562 0.41704795 11
18.759565 -11.192864 0.24057777 9
18.744629 -11.199682 0.59133726 11
18.752035 -11.193787 0.80796838 12.8
18.77079 -10.818576 0.2400765 9
18.756405 -10.811512 0.6153996 11.5
18.764942 -10.870399 0.8130455 13.2
19.15465 -10.510825 0.26495865 9
18.841351 -10.524987 0.24445668 9
19.111431 -10.519962 0.62793911 11.333333
18.833384 -10.532876 0.60363066 11.5
19.139095 -10.53312 0.80086064 12.8
18.842888 -10.569581 0.84070843 13.666667
16.79414 -9.7273521 0.17658301 9.2857141
17.630339 -9.258357 0.24956402 10
16.036713 -9.4505005 0.16715032 9.5
17.641552 -9.0247889 0.25876033 10.272727
17.639961 -9.155633 0.41367424 14
17.659275 -8.7570133 0.31073824 11.6
17.68013 -8.4299688 0.30424246 11
17.701788 -8.1516914 0.31242171 10.625
17.711746 -8.0797796 0.46717426 14
17.72698 -7.8338552 0.32944697 10.333333
17.731598 -7.7820463 0.50811785 13.666667
17.748461 -7.5123582 0.35182425 10
17.755083 -7.4684544 0.53947765 13
17.770924 -7.2332721 0.35154611 9.5
17.76421 -7.2434759 0.52370423 12
17.785398 -7.0125866 0.31688291 9
17.783855 -7.0240035 0.53321129 11.5
16.265903 -5.8648095 0.34098548 9
16.273603 -5.8782411 0.53314734 11
17.90197 -5.4272356 0.43058077 9
16.345718 -4.5531993 0.38695481 8.5
15.288476 -4.4134278 0.37822568 8.5
15.017198 -4.3955331 0.34977266 8.333333
16.340605 -4.575666 0.59801972 10
18.874739 -4.0490012 0.51939797 8.6000004
18.641504 -4.0421104 0.46435133 8.333333
22.078476 -3.4127605 2.4575217 15
21.947515 -3.2831361 2.4583473 15
18.169861 -3.0105288 0.51315886 8.333333
19.661135 -3.1584742 0.9222101 10
19.105534 -3.1327853 0.88975769 10
18.876524 -3.1227536 0.87734503 10
18.25408 -3.0335553 0.78570712 9.666667
19.600004 -3.151885 1.1390166 11
19.401102 -3.1391208 1.1246191 11
19.109985 -3.1273236 1.1038204 11
18.81646 -3.1155725 1.0841902 11
18.514961 -3.0951953 1.0671527 11
18.20052 -3.0145509 1.0603251 11
19.668007 -3.1699064 1.3643601 12
19.436777 -3.1665266 1.4904132 12.666667
19.098579 -3.1490555 1.4221743 12.5
18.803953 -3.134656 1.3973153 12.5
18.50247 -3.1158834 1.3754002 12.5
18.194166 -3.0344288 1.3684745 12.5
19.907595 -3.1959758 1.7324347 13.5
19.701418 -3.1830294 1.708015 13.5
19.390701 -3.1676877 1.7856427 14
19.245802 -3.1632285 1.7682019 14
18.795452 -3.1423039 1.7202735 14
19.897247 -3.208374 2.0823002 15
19.685312 -3.194639 2.0521033 15
19.383192 -3.1770861 2.0107141 15
19.147079 -3.1661615 1.9802016 14.333333
18.867498 -3.1495118 1.9478091 14
18.488976 -3.1286936 1.9087051 14
18.175623 -3.0450442 1.900465 14
21.796761 -3.1376295 2.4599097 15
21.632153 -2.9869549 2.4613202 15
18.180691 -2.7214558 0.46184501 8
18.171228 -2.7850235 0.80939245 9.666667
18.166477 -2.7639096 1.0972828 11
11.654729 -2.6412563 0.88101876 10
11.430697 -2.6599338 0.88637954 10
18.159721 -2.7621806 1.4594247 12.666667
11.645868 -2.6526861 1.1546959 11
11.339397 -2.665616 1.1701432 11
20.584501 -2.8307965 1.7766687 13
20.31922 -2.8157015 1.7445925 13
11.633314 -2.6647992 1.429545 12
11.412723 -2.6812675 1.4443071 12
21.546146 -2.8864057 2.1848805 14
20.582596 -2.8315814 2.0365405 14
20.341301 -2.8175836 2.0028346 14
18.141695 -2.8346052 1.9597992 14
11.626472 -2.6836185 1.8498729 13.5
11.3472 -2.6835938 1.7358484 13
21.555662 -2.9153745 2.4630039 15
20.575571 -2.8397472 2.2958992 15
20.309498 -2.8250709 2.253572 15
11.602492 -2.767242 2.2061141 14.8
11.392061 -2.6985137 2.0191388 14
18.168087 -2.4976385 0.47329548 8
17.937075 -2.4512942 0.46924296 8
17.642164 -2.434875 0.46198899 8
17.503353 -2.4383128 0.45806611 8
16.634033 -2.3770747 0.43914968 8
16.512093 -2.3756204 0.43628097 8
18.15822 -2.5102193 0.80266321 9.5
17.925531 -2.471864 0.79728115 9.5
17.638042 -2.4610882 0.78770906 9.5
17.475544 -2.412287 0.82460201 9.666667
16.635107 -2.400372 0.76398057 9.5
16.502867 -2.4016342 0.76087242 9.5
18.150618 -2.5103915 1.135905 11
17.916697 -2.4747198 1.1294607 11
17.566868 -2.4625981 1.1151037 11
17.41103 -2.3343527 1.1289515 11
16.638378 -2.3870902 1.095805 11
16.502783 -2.4042521 1.089905 11
12.947955 -2.3923609 1.129319 11
18.157583 -2.5527704 1.3524038 12
17.925211 -2.4903696 1.3504907 12
17.622335 -2.4756956 1.336933 12
17.4552 -2.4224265 1.3392781 12
16.629177 -2.4109392 1.3126451 12
16.50732 -2.417798 1.3084877 12
12.926882 -2.4282649 1.3811715 12
12.499233 -2.3796096 1.2823474 11.5
11.691927 -2.4703836 1.1761434 11
18.147083 -2.5663152 1.6907202 13.5
17.921495 -2.4993603 1.6913983 13.5
17.616899 -2.4849277 1.7137164 13.666667
17.473892 -2.4898989 1.666042 13.5
16.622114 -2.4199233 1.6501242 13.5
16.486752 -2.4326229 1.6439134 13.5
