# .PCD v0.7 - Point Cloud Data file format
VERSION 0.7
FIELDS x y z intensity
SIZE 4 4 4 4
TYPE F F F F
COUNT 1 1 1 1
WIDTH 1285
HEIGHT 1
VIEWPOINT 0 0 0 1 0 0 0
POINTS 1285
DATA ascii
-11.847209 -0.0027551055 6.409204 8.6090002
-11.866083 0.088259824 6.695159 9.277667
-11.881647 0.13319409 7.0376911 9.4767275
-11.89974 0.11351114 7.4536972 9.1152506
-11.918165 0.13834941 7.8478947 9.1170006
-11.929206 0.084347956 8.2365675 8.6184998
-11.94693 0.10363134 8.6125154 8.61975
-11.966347 0.12634927 9.0477619 8.6209993
-11.99981 0.16529253 9.7812653 8.6227503
-12.021224 0.19267356 10.289862 8.6237497
-12.049378 0.233594 11.040012 8.625
-11.514468 0.41984984 2.3429186 12.0695
-11.948494 0.46463361 8.1056509 11.118
-12.373651 2.1323085 11.939632 15.1255
-12.605948 2.1779113 14.966464 13.128
-12.215137 -0.094143175 2.3669522 8.5734997
-12.287039 0.045049571 5.4817929 9.3855
-12.231394 0.42930099 2.3614614 11.5735
-12.265591 0.73169768 2.3120358 13.740001
-12.305155 0.7735756 2.3913631 14.074
-12.856574 2.1361353 13.092248 14.1255
-12.972483 2.1636906 14.855439 13.127
-12.365158 -0.054362945 0.9938972 8.8173752
-12.373243 -0.024548553 1.8884118 9.0714998
-12.630671 0.044569485 2.3243773 9.5749998
-12.70113 0.018342339 5.4667568 9.0987501
-12.597379 0.32627025 2.3497488 11.575
-12.63907 0.76811016 2.3252857 13.575
-13.285467 2.1066735 12.864304 14.124001
-13.497208 2.1325498 14.623844 13.1255
-13.343235 2.1518602 14.744776 13.126
-13.448171 2.187701 17.219172 12.12775
-13.072187 0.022431813 5.4523845 9.0979996
-13.632935 2.081769 12.65662 14.12275
-13.760436 2.1202226 14.51208 13.12475
-13.990141 2.1586597 17.007919 12.1265
-13.784245 2.1747441 17.120268 12.127
-13.323593 -0.016940214 1.2518497 9.0722504
-13.286272 -0.18434724 2.3687363 8.0775003
-13.35581 0.025493853 5.4387541 9.0974998
-13.298255 0.30147967 2.3640916 11.0775
-13.354259 0.63695318 2.3347349 13.0775
-13.318439 0.97616512 2.263108 14.077
-13.323719 0.96773666 2.3524683 14.0775
-14.008668 2.0750239 12.50065 14.121501
-14.117054 2.1073649 14.368861 13.12375
-14.321697 2.1450462 16.890594 12.12575
-14.490491 2.2296154 20.867714 11.128
-13.329869 -0.21687129 -0.077321053 8.0675001
-13.682599 -0.020227276 2.3011971 9.0782499
-13.69323 -0.04975044 5.4271607 8.5970001
-13.70001 0.24396035 2.2931168 10.57825
-13.738213 0.7829774 2.2747545 13.57825
-14.491154 2.0514534 12.204991 14.11975
-14.276175 2.0574391 12.321232 14.1205
-14.615936 2.0770168 14.082097 13.12225
-14.394933 2.1030741 14.277634 13.123
-14.735311 2.1189771 16.678642 12.12475
-14.911205 2.2071171 20.7061 11.12725
-14.086632 -0.05190324 5.4111562 8.5965004
-14.757591 1.8950113 9.8929825 15.114
-14.785599 2.0200765 11.923574 14.1185
-14.939656 1.9590458 13.359207 13.1205
-14.856005 2.0606685 13.924366 13.1215
-15.03433 2.0119276 15.985255 12.1235
-15.031969 2.0951557 16.486885 12.124
-14.542842 0.39061522 2.3637512 11.0805
-14.554245 0.695611 2.3582561 12.5805
-14.565504 1.0079999 2.3527663 14.0805
-15.041693 1.9361439 9.878067 15.11325
-15.392701 2.0220029 13.529966 13.11975
-15.565386 2.0745277 16.253845 12.12275
-15.711012 2.1532826 20.290426 11.12575
-14.903161 -0.0095544383 2.2348971 9.0804996
-14.902624 0.20562944 2.2346129 10.0805
-15.096408 1.1066452 2.2477348 14.081
-14.618416 1.751758 -1.529706 15.0675
-14.841137 1.7460887 -1.3173051 15.0685
-15.492586 1.94303 9.5379782 15.11125
-15.721079 2.0104077 13.334068 13.11875
-15.838185 2.0485168 16.030106 12.122
-16.130234 2.1369836 20.14336 11.125
-15.255036 -0.0061908588 2.210748 9.0810003
-15.268056 0.22138074 2.2048495 10.081
-15.171827 0.6646505 2.2188871 12.081
-15.190548 0.89436448 2.2106557 13.081
-15.009451 1.7491704 -1.1877031 15.06925
-15.243421 1.7429708 -0.92508411 15.0705
-15.952776 1.9139646 8.9268293 15.1085
-15.779438 1.9206876 9.1458797 15.1095
-16.235971 1.9776853 12.913613 13.117
-16.007183 1.9881419 13.082581 13.11775
-16.155779 2.0382442 15.882753 12.12125
-16.544344 2.1183782 19.968071 11.12425
-15.758875 -0.060853936 5.3373623 8.5950003
-15.76086 1.4744095 2.2378259 15.082
-15.49459 1.7023381 -2.5182419 14.0675
-15.410637 1.7350127 -0.69925928 15.0715
-15.53833 1.7315183 -0.53102636 15.07225
-16.274357 1.8887707 8.3898525 15.10625
-16.087601 1.8990934 8.6838818 15.107501
-16.62199 1.9403071 12.489889 13.1155
-16.466049 1.9685551 12.742336 13.11625
-16.612518 2.0035543 15.526585 12.12
-16.918354 2.0903802 19.717854 11.1235
-16.137115 -0.058151104 5.5005145 8.5955
-15.957246 1.512256 2.2962935 15.0825
-15.861986 1.6940418 -2.1626744 14.069
-16.627151 1.8454688 7.5602121 15.103001
-16.511906 1.8746456 7.9641285 15.1045
-16.411451 1.8912168 8.225296 15.1055
-16.583759 1.8540431 9.8094406 14.10975
-16.814304 1.924623 12.282897 13.11475
-17.077477 1.9751297 15.184039 12.11875
-17.324158 2.0723035 19.52577 11.12275
-16.275129 -0.33006915 -3.15625 8.0679998
-16.24049 -0.30640918 -1.2377448 8.0719995
-16.651573 -0.064460702 5.3051338 8.5944996
-16.527735 1.4535776 2.1956885 14.416167
-16.079475 1.6876862 -1.9205914 14.07
-16.285179 1.681307 -1.6670718 14.071
-16.479113 1.6744549 -1.4051938 14.072
-16.418842 1.6489182 1.7154441 15.081
-16.59721 1.6457011 2.3570545 15.0835
-16.653378 1.6454349 2.6175017 15.084499
-17.003689 1.8022952 6.3762946 15.0985
-16.930412 1.8101864 6.643096 15.0995
-16.826759 1.8280895 7.0453782 15.101001
-16.699059 1.8280927 7.2915711 15.102
-17.071898 1.8764247 9.4669266 14.107999
-17.160402 1.907905 11.960853 13.1135
-17.497616 1.9401028 14.787441 12.1175
-17.333406 1.9541782 14.948437 12.118
-17.74522 2.059859 19.364269 11.122
-17.044834 1.4543411 2.2224822 14.0835
-16.642593 1.6169665 -3.7927446 13.0675
-16.638803 1.68708 -1.3260775 14.0725
-17.118603 1.7406181 2.7820706 15.0855
-17.124269 1.733133 3.0744259 15.086499
-17.174944 1.7566607 5.0110178 15.093501
-17.212254 1.7841841 5.4291286 15.095
-17.137316 1.7916573 5.8385401 15.0965
-17.098146 1.8076609 6.1838951 15.09775
-17.315655 1.7551264 8.2603254 14.10425
-17.486534 1.84814 8.777544 14.1055
-17.294937 1.8516443 9.0399075 14.1065
-17.777351 1.9280159 14.58486 12.11675
-18.089544 2.0297883 19.068731 11.12125
-18.565197 1.9130733 23.824059 10.124
-16.802572 1.6182033 -3.6825905 13.068
-17.07748 1.6122214 -3.4094667 13.069
-17.905869 1.8080021 7.8191099 14.10225
-17.767952 1.8058196 8.0241489 14.103
-18.139805 1.911162 14.299571 12.11575
-18.439655 2.0036111 18.792316 11.1205
-17.693899 -0.21855187 5.2564783 8.0939999
-18.944386 1.3858101 18.516518 10.1195
-18.964493 1.4398102 19.075497 10.12
-17.547869 1.5453845 2.2257907 14.084
-18.600578 1.7709287 13.017182 12.113
-18.77828 1.8826385 17.745304 11.119
-18.971786 1.910832 23.801388 10.1235
-17.462261 1.6029643 -2.9762449 13.070499
-17.815102 1.5910945 2.3079085 14.0845
-17.859123 1.5919985 2.5348911 14.08525
-18.173103 1.7769469 6.9801159 14.0995
-18.007179 1.7873515 7.4316134 14.101001
-18.615139 1.8130181 13.329718 12.1135
-18.60857 1.8748269 13.795485 12.11425
-18.411442 1.8998555 14.083842 12.115
-18.79285 1.9475154 18.263906 11.1195
-18.652649 1.9823073 18.57555 11.12
-18.271656 -0.21324122 5.940712 8.0959997
-19.279615 1.3858597 18.474678 10.119
-18.263077 1.3559699 1.6826835 13.083
-18.625492 1.4315473 10.125084 12.10725
-18.582893 1.4726019 10.547874 12.10825
-18.925699 1.7407899 12.573724 12.11175
-18.716503 1.7556837 12.827541 12.1125
-19.605995 1.7237731 21.921047 10.1215
-19.562771 1.9015236 23.697884 10.12275
-17.721161 1.5875473 -2.5644979 13.07175
-17.900181 1.5850563 -2.3398619 13.0725
-18.163538 1.6430733 2.7367578 14.086
-18.169319 1.6395506 2.9760299 14.08675
-18.415314 1.775267 6.372467 14.0975
-18.441826 1.7191201 9.4755564 13.106
-18.454256 1.745681 9.6891079 13.1065
-18.058784 -0.36831465 -2.4959173 8.0725002
-18.78722 0.11412727 6.0080976 9.0959997
-18.112041 0.49506471 -4.498003 10.069
-18.176003 0.4655076 -3.65874 10.0705
-18.171774 0.45546117 -3.3735032 10.071
-18.043049 0.43903393 -2.9898705 10.0715
-18.061127 0.42745408 -2.6140418 10.07225
-18.835423 0.46812353 6.3489656 10.097
-19.21542 1.2318157 11.726297 11.10975
-19.220123 1.2711779 12.131063 11.1105
-19.208561 1.2969044 12.398214 11.111
-19.302841 1.3384477 12.75775 11.1115
-19.514959 1.3258325 17.801163 10.118
-19.441807 1.3610153 18.188766 10.1185
-18.154705 1.0348214 -5.891408 11.067
-19.115206 1.4101743 9.4131794 12.105
-19.103594 1.4393138 9.7307644 12.10575
-19.061539 1.4654804 10.038517 12.1065
-19.238728 1.6654346 11.723383 12.10975
-19.254498 1.7153465 12.13631 12.1105
-19.191437 1.7372774 12.363718 12.111
-19.252579 1.3617204 13.012971 11.112
-19.246738 1.3921971 13.309493 11.1125
-19.255722 1.4262925 13.628225 11.113
-19.309872 1.4870847 14.167378 11.11375
-19.312546 1.543818 14.683392 11.1145
-19.328346 1.5862728 15.056725 11.115
-19.418934 1.643344 15.524272 11.1155
-19.440893 1.6920817 15.940795 11.116
-19.466335 1.7435362 16.374561 11.1165
-19.487089 1.7974159 16.82571 11.117
-19.506613 1.8535072 17.290884 11.1175
-19.629715 1.6004117 20.664646 10.1205
-19.592958 1.6560156 21.235626 10.121
-17.965887 1.4822336 -5.6523008 12.067
-17.976723 1.4507681 -5.3145046 12.0675
-18.01543 1.4258062 -5.0197325 12.068
-19.091724 1.6744134 8.170639 13.102
-18.427103 0.54151732 -5.4982862 10.068
-18.406609 0.55485755 -5.8316565 10.0675
-18.511141 0.91790825 -3.8114309 11.07075
-18.528076 0.89509994 -3.3977518 11.0715
-18.548832 0.87472492 -3.0037503 11.07225
-18.748503 0.74048454 0.78178358 11.081
-18.441525 1.0441799 -5.8542585 11.0675
-18.459045 1.0222605 -5.5174217 11.068
-18.499485 0.9934476 -5.0490141 11.06875
-18.528576 1.3584173 -3.8194132 12.07075
-18.542257 1.3259766 -3.4031353 12.0715
-18.561523 1.2971143 -3.008172 12.07225
0.80774403 1.5718584 7.0647898 11
0.78234673 1.9129238 7.0521045 12
0.76840878 2.2615209 7.0422926 13
-1.7286353 1.4239661 6.9887528 12
-1.7345634 1.9368715 6.7907219 14
-1.922399 1.443876 7.6863298 12
-1.8239689 1.6585677 6.8995152 13
-1.8668804 1.6734064 7.1792359 13
-1.9064121 1.7144279 7.6908426 13
-1.8336592 1.8788203 6.4237037 14
-1.8505564 1.9179926 6.9131498 14
-1.8451824 1.9494293 7.2110152 14
-1.8581905 2.0054102 7.7386198 14
-1.893486 2.1002617 8.5375013 14
-1.9383802 2.1874185 9.2037725 14
-2.039537 2.1907947 7.4317274 15
-2.0319633 2.2263641 7.684166 15
-2.0376048 2.2647011 7.9684629 15
-2.6710458 2.4114027 9.779109 15
-2.3862095 0.26779783 2.6673245 8
-2.3962946 0.49370646 2.6850586 9
-2.3616128 0.49816215 2.8884096 9
-2.3884754 0.72252333 2.9338226 10
-2.4161367 0.7199285 2.682044 10
-2.4343133 0.94593155 2.6773267 11
-2.3814783 0.950755 2.945158 11
-2.4200239 1.1779747 2.6871037 12
-2.3936806 1.1776979 2.9162359 12
-2.4786248 1.3994128 2.6727452 13
-2.4141021 1.4066573 2.8895078 13
-2.4369292 1.6486951 2.6494241 14
-2.4275331 1.6406044 2.8840652 14
-2.4337358 1.8805678 2.8292699 15
-2.8522944 1.3154705 2.6600595 13
-2.887857 1.5313619 2.6406708 14
-3.2865243 0.41410431 2.7420721 9
-3.2983556 0.61075711 2.7378893 10
-3.3013778 1.2151787 2.6489024 13
-3.2992535 1.4247718 2.639081 14
-3.3122597 0.80705237 2.7334235 11
-3.7280779 0.3745507 2.6485207 9
-3.7705836 0.55390108 2.657872 10
-3.7459612 0.74187344 2.6383204 11
-3.7201524 0.93096054 2.6788685 12
-3.794179 1.1070638 2.6219492 13
-4.2282667 0.16439563 2.6828451 8
-4.2366371 1.0108049 2.6091161 13
-4.1945844 1.1988784 2.5996544 14
-4.2909179 0.3249737 2.6308608 9
-4.3039169 0.49001873 2.6290998 10
-4.3206363 0.73768759 2.6242404 11.5
-4.8510022 0.87914628 2.6024628 12
-5.079361 0.11733161 2.7012324 8
-5.0746655 0.25689578 2.6753397 9
-5.119688 0.5558688 5.7401433 11
-6.0265656 0.12082009 2.7394407 8.5
-6.0117388 0.28946346 2.7391796 10
-6.0183258 0.40086952 2.7367225 11
-6.0250053 0.68668079 2.724673 12.5
-6.0291204 0.86269075 2.7172813 14
-6.2059584 0.1091411 2.7007434 8.5
-6.2263985 0.31970584 2.7245364 10.5
-6.2516451 0.66152024 2.5314875 12.5
-6.2306495 0.69968051 2.717566 13
-6.2168355 0.82402825 2.6568735 14
-6.2661858 0.22189702 -0.47044182 9
-6.389328 0.30811399 2.5579541 10.5
-6.3811316 0.80650973 2.5151472 14
-6.8020964 0.15093188 5.6934376 9
-6.5749936 0.28692114 2.5541711 10.5
-6.7616787 0.37348816 5.6925764 11
-6.5414858 0.55186176 2.529361 12
-6.758441 0.44955558 5.6939564 12
-6.543808 0.71408838 2.520036 13.5
-6.8692384 0.18645979 -0.50832796 9
-7.1480994 0.43335122 5.6870995 13
-6.9885964 0.62754267 2.4949903 13.5
-7.1548448 0.091746435 2.5803764 9
-7.1550989 0.26297489 2.6256423 10.5
-7.1806135 0.5448311 2.4968913 13
-7.1679463 0.43763399 2.612654 12
-7.1738987 0.64050394 2.4932215 14
-7.6089568 0.35668227 5.6724362 13.5
-7.4671845 0.41750765 5.6812749 14
-7.5575347 0.48856932 2.4840887 13
-7.5558481 0.57901859 2.4696841 14
-7.8871336 0.27763665 2.5351651 11
-8.0050125 0.058127273 2.5368454 9.25
-8.049181 0.2618393 2.5494308 11
-8.0690041 0.42239058 2.5111625 13
-8.1475086 0.031572226 2.5262458 9
-8.3758965 -0.053258874 2.5115807 8
-8.5047512 -0.024274018 2.5353827 8.5
-8.7829189 0.0032358691 2.5437875 9
-8.9891434 0.044700544 5.602788 9
-9.0310726 0.10357319 5.6367722 10.5
-8.8395605 0.22650646 2.5082188 11
-8.9986744 0.22927718 5.6169987 14
-8.8738461 0.42603979 2.4714701 13.5
-9.0785561 0.025873538 5.6385145 7
-8.9932957 0.22664101 2.4965031 11
-9.0535583 0.1882675 5.673708 12.5
-9.4843111 0.50214231 2.4025409 14
-9.5140619 0.4153347 2.411284 13
-9.7906837 -0.061309863 2.5490873 8.5
-9.7400799 0.073593765 2.4662826 10
-9.7741652 0.38452044 2.4278412 12.5
-9.8109245 0.51167053 2.4804771 14
-10.636583 -0.077125862 2.878541 8.5
-10.607091 0.11840905 2.8883357 10.5
-10.658697 0.35933089 2.8719058 12
-10.650649 0.50497538 2.8681312 13.5
-11.33112 -0.085961595 2.4878018 8.5
-11.361298 0.10936943 2.5042188 10
-11.348221 0.22977908 2.5162151 11
-11.870522 2.0207267 11.515577 15
-11.590635 -0.010924693 2.4882321 9
-11.535125 -0.16576409 2.513154 8
-11.797314 0.027929697 5.499496 9
-11.793474 0.14320217 5.4953241 10
-11.874473 0.19532646 6.9116373 8.666667
-11.930573 0.16362831 8.1917486 9
-12.041931 0.32602054 10.700387 9
-11.904851 0.38300005 8.1742363 9.333333
-12.011612 0.56332618 10.628809 10
-11.937248 0.4332734 10.732473 7
-11.848967 0.21264364 5.5491657 7
-12.236608 -0.18876036 2.3753996 8
-12.249408 0.070930377 2.3572664 9.5
-12.233857 0.29546866 2.3590338 11
-12.259169 0.44778591 2.3615019 12
-12.626698 0.65010512 2.3414259 13
-12.790417 0.0011755042 2.3419919 9
-12.78149 0.50236231 2.3294168 12
-13.255537 0.0065070055 2.3141546 9
-13.268625 0.55336672 2.3286011 12
-13.274 -0.22019199 2.3303969 8
-13.291033 0.19057176 2.2962866 10
-13.307753 0.37536305 2.2888379 11
-13.312477 0.74414134 2.3270907 13
-13.363852 0.94389099 2.3016217 14
-13.666574 0.011494797 2.3038597 9
-13.682531 0.59918708 2.2964027 12
-14.062837 1.8987112 9.9322662 15
-13.700122 0.40494967 2.2886701 11
-14.221148 -0.24842007 2.2885327 8
-14.256491 0.01902182 2.2665024 9
-14.273512 0.23477979 2.2586012 10
-14.166443 0.44164443 2.258225 11
-14.210213 0.65817547 2.2618742 12
-14.267907 1.1055884 2.2358389 14
-14.246273 1.3246135 2.2222569 15
-14.50282 0.68643796 2.3767617 12
-14.32408 0.8918528 2.2362132 13
-14.499151 1.1377296 2.3759522 14
-14.515882 1.37017 2.3683705 15
-14.873641 1.8794007 10.771484 14
-14.510517 0.022719335 2.3757858 9
-14.518113 0.24485059 2.3718143 10
-14.518482 0.46656549 2.3706181 11
-14.516371 0.91288275 2.3704596 13
-15.638123 1.8274673 9.8554134 14
-15.453521 -0.28423113 2.2665334 8
-15.455538 0.035638791 2.2829044 9
-15.45742 0.28979445 2.2806916 10
-15.493343 0.54665422 2.2667274 11
-15.4742 0.79952669 2.273102 12
-15.511545 1.0635386 2.2585821 13
-15.644942 1.3523648 2.2367542 14
-16.451736 1.8136497 11.319436 13
-16.349981 -0.31048328 2.224654 8
-16.380795 0.048885029 2.2332935 9
-16.386385 0.33465764 2.229449 10
-16.344826 0.61631596 2.2417347 11
-16.383831 0.90509319 2.2275035 12
-16.439945 1.2022997 2.2377195 13
-16.528862 1.7699996 3.4569035 15
-16.590919 1.8289474 5.6757975 15
-17.584473 1.7463588 9.7817211 13
-17.794827 1.7873638 6.0324135 14
-17.849792 1.7366552 3.1639571 14
-18.390759 1.7873942 9.1610832 13
-18.164333 -0.36172616 2.2341835 8
-18.174616 -0.35716933 2.5148883 8
-18.185736 0.079375967 2.5319085 9
-18.376484 0.11015947 4.3382301 9
-18.374298 0.12112676 4.8520694 9
-18.400036 0.13222028 5.2965984 9
-18.223385 0.42539084 2.5199459 10
-18.401508 0.45568156 4.3999319 10
-18.397346 0.46507287 4.8459988 10
-18.445095 0.47800756 5.257947 10
-18.467237 0.50738096 6.1648641 10
-18.407497 0.66835636 5.0754976 7
-18.225231 0.77054513 2.5176513 11
-18.473328 0.87582505 6.5845385 11
-18.244135 1.1182302 2.5098009 12
-18.265192 1.4723042 2.5013804 13
-18.545088 0.097999856 3.4978719 9
-18.45224 0.10420804 3.9580717 9
-18.53079 0.44407547 3.0710382 10
-18.45533 0.45061833 3.9523618 10
-18.452187 0.6476686 4.2545571 7
-18.423609 0.65639865 4.6299639 7
-18.599129 0.69286364 5.4318409 7
-18.421675 0.79363644 3.9510024 11
-18.563538 0.094533309 3.2481878 9
-18.753511 0.45827675 3.3608003 10
-18.718605 0.46817577 4.1815166 10
-18.589506 0.639916 3.622473 7
-18.729252 0.6855917 4.8767033 7
-18.956417 1.0878402 9.448699 11
-19.086967 1.5114381 9.5394135 12
-18.737642 -0.36931938 2.7204714 8
-18.767918 0.091061965 2.7343857 9
-18.775635 0.45420766 2.7286816 10
-18.802908 0.46329498 3.5708864 10
-18.80007 0.64762288 3.3496218 7
-18.841618 0.66325188 3.8123984 7
-18.793915 0.81832719 2.6860261 11
-19.092182 1.0087564 8.1131163 11
-18.806112 1.1835645 2.6794491 12
-19.037735 1.3183137 6.9885416 12
-19.110889 1.3987612 8.107688 12
-18.821741 1.5546371 2.7089124 13
0.83311176 1.2192498 6.7980452 10
0.82217979 1.5609345 6.8047309 11
0.81555462 1.5686376 6.9787197 11
0.79932213 1.9008504 6.7930193 12
0.79375839 1.909982 6.9670467 12
0.78648472 2.2492163 6.800817 13
0.77643776 2.2573566 6.9559779 13
-1.7554517 1.4201478 7.0064206 12
-1.7385921 1.4362382 7.1765118 12
-1.854969 1.4479828 7.5894995 12
-1.8305421 1.6877869 7.2474031 13
-1.7814779 1.6156625 7.5056553 12.6
-1.8104362 1.9041771 6.6490936 14
-1.7972851 1.9259696 6.8503361 14
-1.7810493 1.9597269 7.148767 14
-1.7754216 1.9944235 7.4610453 14
-1.8528938 1.9980086 7.6647415 14
-1.8298326 2.1452591 6.4585333 15
-1.9152718 2.1088679 8.6358566 14
-1.9318652 2.1538508 8.9711971 14
-1.9423046 2.1808181 9.1667652 14
-1.9142575 0.92424369 7.6969171 10
-1.9117031 1.1845692 7.6939435 11
-1.8383088 1.6582713 6.9343605 13
-1.8453999 1.6675918 7.0600476 13
-1.8288488 1.8854831 6.4887686 14
-1.8191099 2.1141915 6.055738 15
-1.8240976 2.1289842 6.255939 15
-1.8508196 2.1568966 6.6456251 15
-1.8582525 2.1746945 6.8400173 15
-1.8997917 2.1968188 7.1462502 15
-2.0096388 2.2034068 7.460619 15
-2.0426702 2.2825015 8.0992422 15
-2.0510197 2.317564 8.3440933 15
-2.0603619 2.3624728 8.6423388 15
-2.0672741 2.38657 8.7992229 15
-2.0749373 2.4174445 8.9925995 15
-2.2171526 2.4318504 9.2842722 15
-2.4448066 2.4244783 9.5567932 15
-2.4307251 0.26608995 2.7170417 8
-2.3523803 0.27268463 2.8476367 8
-2.4030561 0.60737747 2.7641518 9.5
-2.4100528 0.94933271 2.7052009 11
-2.388412 0.95104778 2.8297842 11
-2.4280362 1.1747721 2.7554469 12
-2.4364057 1.4061067 2.7545462 13
-2.4336252 1.6453729 2.7401013 14
-2.4352536 1.8800019 2.8299203 15
-2.6152849 2.4165373 9.7358351 15
-2.6944695 0.57617605 2.6737957 9.5
-2.598114 0.92020291 2.6724157 11
-2.584373 1.1469134 2.6702507 12
-2.7039452 1.4636444 2.6558931 13.5
-2.9477038 0.54919624 2.6705234 9.5
-2.895257 0.87364036 2.6657181 11
-2.9326706 1.1524562 2.6611693 12.333333
-3.005156 1.5003885 2.6492572 14
-3.303618 0.49135923 2.6904712 9.3999996
-3.2955446 0.81080401 2.6782918 11
-3.3117328 1.1433753 2.6944065 12.666667
-3.3076591 1.4202346 2.6792946 14
-3.6364818 0.47608376 2.656817 9.5
-3.6371732 0.75854427 2.6434882 11
-3.88557 0.36062595 2.646636 9
-3.8845472 0.54016382 2.6524255 10
-3.8844228 0.81141901 2.6428909 11.5
-3.9615321 1.1310443 2.6298542 13.333333
-3.825985 1.2913342 2.6121821 14
-4.2095952 0.24906607 2.6520433 8.5
-4.219975 0.49983585 2.6449955 10
-4.1502266 0.7954495 2.6367621 11.666667
-4.1958961 1.108537 2.6092029 13.5
-4.374032 0.97919869 2.6377923 13
-4.8130064 0.27962604 2.6131797 9
-4.838768 0.50162458 2.6153905 10.5
-4.8623743 0.87750322 2.5917377 12
-4.8466702 1.1177933 2.5796177 13.5
-5.0704708 0.1876017 2.6846504 8.5
-5.0964127 0.46564418 2.6844296 10.5
-5.1002069 0.49481374 5.7508907 10.5
-5.1105204 0.67502391 2.6811037 12
-5.6939588 0.39133847 2.5904417 10.5
-5.7040825 0.78318864 2.5775602 12.6
-5.7107639 0.96626806 2.5609951 14
-6.0589609 0.1738915 2.7380667 9
-6.0641904 0.39446354 2.7374177 11
-6.0806885 0.70365673 2.7276371 12.75
-6.3594189 0.25803906 2.5624502 10
-6.1761913 0.16459005 2.7191463 9
-6.3144965 0.37094805 2.556793 11
-6.1851263 0.37956357 2.7066278 11
-6.3190045 0.68214226 2.5312169 12.8
-6.1870084 0.71067148 2.7106624 13
-6.552793 0.23832388 2.5570803 10
-6.8008022 0.22187252 5.6924458 10
-6.3634262 0.21638419 -0.49146271 9
-6.5882888 0.43935937 2.5386908 11.5
-6.8108392 0.40120059 5.6894002 11.5
-6.6226292 0.69799775 2.5155663 13.5
-6.814517 0.18961026 -0.50654364 9
-7.0084047 0.16456097 5.6838083 9.166667
-6.6181164 0.20119162 -0.50487041 9
-6.864697 0.49883407 2.5145397 12
-6.9467535 0.37452191 5.6842322 11.5
-6.8690877 0.64916253 2.5056624 13.5
-6.9262929 0.18338659 -0.51644945 9
-7.1535864 0.091762021 2.5739174 9
-7.2690582 0.18504553 5.6742058 9.7142859
-7.2202039 0.44148478 2.5377667 12
-7.2574997 0.37603247 5.6747046 12.5
-7.2353325 0.631181 2.4827809 14
-7.4884024 0.046391767 0.75232601 8.5
-7.4588566 0.15780401 2.5543573 10
-7.5625291 0.17749357 5.6623216 10.166667
-7.4770546 0.40798852 2.5248375 12
-7.5411596 0.37114415 5.6709299 13.5
-7.4560547 0.59450698 2.4738822 14
-7.7083073 0.13516951 2.5461588 10
-7.8475738 0.16198829 5.6512156 10.5
-7.5248017 0.32468218 0.77621579 10.5
-7.7821274 0.32823315 2.5316849 11.5
-7.8689442 0.32492915 5.6593008 14
-7.5554886 0.52369112 0.84815145 12
-8.05762 0.055212151 2.5257666 9.25
-8.2150288 0.14465299 5.6363487 11
-8.0934401 0.36316198 2.5174608 12.285714
-8.3573265 0.019101057 2.5315247 9
-8.4608355 0.1895453 5.6301918 12.75
-8.3531132 0.38371462 2.5010774 12.8
-8.637908 0.023458507 2.5266297 9.1999998
-8.8664198 0.15099087 5.6125078 12
-8.6862888 0.34772867 2.4931366 12.5
-9.0264254 0.074495494 2.4960949 10
-9.0325003 0.11572178 5.6471906 10.375
-9.0291815 0.26700616 2.48559 11.5
-9.2682724 0.072298422 2.4899359 10
-9.2535982 0.2566511 2.4813759 11.333333
-9.5207739 0.072039872 2.4799945 10
-9.5269833 0.34281135 2.4426122 12.2
-9.5448837 0.50686347 2.4003973 14
-9.804554 -0.0074342266 2.6246147 9.1428576
-9.9127121 -0.026015602 2.8968735 9
-9.7507887 0.37943125 2.4494114 12.5
-9.8205576 0.32432401 2.6600962 12.2
-9.9029188 0.32422984 2.8825588 12.5
-9.7576971 0.52283895 2.4042375 14
-9.8371286 0.4777202 2.6581044 14
-10.175837 -0.0022311881 2.9050753 9.25
-10.132311 0.31889817 2.8975735 12.2
-10.150364 0.4739055 2.8845091 14
-10.475051 -0.027296159 2.8920965 9
-10.475437 0.32545274 2.8866739 11.857142
-10.529641 0.50155175 2.8714452 13.666667
-10.16573 0.9085198 -5.4339242 11
-10.15223 1.2671932 -5.4387479 12
-10.149417 1.6332144 -5.4561992 13
-10.613818 0.1654751 2.8835413 11
-11.345532 -0.061852764 2.5023644 8.666667
-11.335703 0.16926615 2.5019786 10.5
-11.940946 2.0157185 11.475819 15
-11.55004 -0.088598311 2.4298213 8.5
-11.814761 0.090502784 5.5999994 9.5
-11.831108 0.081938043 5.8577552 9.333333
-11.843809 0.056157339 6.1916409 9
-11.857101 0.070024997 6.4891963 9
-11.870481 0.085635766 6.8049927 9
-11.929113 0.16205043 8.1656103 9
-11.551322 0.18032578 2.4784367 10.5
-11.84703 0.21583916 5.6467538 7
-11.849677 0.19679354 5.9172769 8.5
-11.858927 0.21702076 6.1575561 8
-11.868401 0.21629347 6.4722357 9
-11.877464 0.24632739 6.7601032 8
-11.877723 0.26637995 6.9514713 7
-11.908001 0.38307297 8.1691256 9.333333
-12.004284 0.43679896 10.618207 8.666667
-12.099714 2.0102491 11.405209 15
-12.398004 1.9955536 11.24377 15
-12.245564 -0.18932325 2.3519981 8
-12.252018 -0.0044976212 2.3810692 9
-12.257009 0.22101159 2.3793998 10.5
-12.253045 0.44692233 2.3658082 12
-12.666246 1.980517 11.078375 15
-12.658102 -0.00019976869 2.3307052 9
-12.652172 0.24409194 2.3350301 10.5
-12.660189 0.4898265 2.331398 12
-12.660482 0.65463758 2.3408399 13
-13.001794 1.9624516 10.85241 15
-12.721848 0.00043698773 2.3420155 9
-12.754072 0.25007784 2.3344126 10.5
-12.747679 0.49941719 2.3197184 12
-12.736856 0.66521132 2.3355482 13
-13.251773 1.9464751 10.659122 15
-13.298016 0.55526221 2.3546803 12
-13.289159 0.80101264 2.3687997 13.333333
-13.677473 1.9248983 10.316948 15
-13.509861 1.934073 10.459637 15
-13.297594 -0.10632083 2.3417351 8.5
-13.314457 0.19126622 2.3153994 10
-13.317102 0.46623403 2.3385115 11.5
-13.981443 1.9046237 10.019301 15
-13.843372 1.9148949 10.162728 15
-13.682009 0.011693206 2.3027949 9
-13.712234 0.20899673 2.2993693 10
-13.710234 0.40569454 2.2900653 11
-13.700499 0.60124642 2.2941496 12
-13.727221 0.80444044 2.2866919 13
-13.727349 1.0084261 2.2754354 14
-14.040771 1.8985455 9.9477396 15
-14.039274 0.1553854 2.2838798 9.666667
-13.997527 0.42811823 2.2758238 11
-14.180225 0.87050831 2.2514999 13
-13.978565 0.73617464 2.2779167 12.5
-14.095001 1.0743872 2.2483959 14
-14.323004 -0.25034225 2.3572977 8
-14.306007 0.10639746 2.3408926 9.3999996
-14.307815 0.4508146 2.3345799 11
-14.326922 0.77843487 2.3281457 12.5
-14.294327 1.1094333 2.2479208 14
-14.390455 1.0451857 2.3461511 13.666667
-14.377419 1.3455966 2.3059275 15
-14.920773 1.8760148 10.719933 14
-15.136795 1.8638996 10.491894 14
-15.023042 0.14952479 2.2284467 9.5
-15.033189 0.51059306 2.2240911 11
-15.047417 0.75253093 2.2303936 12
-15.065418 0.99965179 2.2223666 13
-14.994534 1.3569964 2.2406869 14.5
-14.997562 1.4799517 2.2703786 15
-15.45792 1.8448049 10.121677 14
-15.152117 -0.27637491 2.215827 8
-15.180923 0.03147633 2.2222159 9
-15.153883 0.27592123 2.2177579 10
-15.174599 0.52188951 2.2232261 11
-15.201565 0.77008498 2.224905 12
-15.228614 1.024465 2.2004585 13
-15.404406 1.0499452 2.2072463 13
-15.399422 1.31039 2.1894844 14
-15.262091 1.2850301 2.199894 14
-15.589581 1.8313552 9.9238281 14
-15.384184 -0.28290847 2.2240207 8
-15.431084 0.03501698 2.2244377 9
-15.409119 0.41451144 2.2241969 10.5
-15.531191 0.8072139 2.2332377 12
-15.552969 1.071103 2.2237461 13
-15.555876 1.3373581 2.2145147 14
-15.918787 -0.29897609 2.1752608 8
-15.953856 0.042389583 2.1957855 9
-15.886698 0.31087202 2.1817772 10
-15.820616 0.70778424 2.2020967 11.5
-15.794392 1.1070669 2.2152982 13
-16.000551 1.2801074 2.173286 13.5
-16.099646 -0.30418423 2.172544 8
-16.18663 0.045762789 2.1915226 9
-16.166782 0.32428706 2.1815305 10
-16.108669 0.59789681 2.1858127 11
-16.135281 0.87785232 2.1752379 12
-16.188477 1.1678026 2.1554258 13
-16.151314 1.447261 2.1877027 14
-16.686953 1.8007075 11.046799 13
-16.532194 1.8101912 11.234648 13
-16.302656 -0.30985272 2.1801326 8
-16.375195 0.048531931 2.1903205 9
-16.352221 0.33314902 2.1955345 10
-16.384445 0.62038946 2.1847596 11
-16.473038 0.91626018 2.1927078 12
-16.394135 1.1981262 2.1626818 13
-16.416485 1.494015 2.2278104 14
-16.947678 1.7832769 10.701632 13
-16.803604 1.7916005 10.886547 13
-16.528925 1.7700578 3.4618194 15
-16.546177 1.7706233 3.7345719 15
-16.570946 1.7756596 4.0232487 15
-16.57058 1.7775927 4.3277483 15
-16.577137 1.7845066 4.6323709 15
-16.590385 1.7987415 5.0199943 15
-16.599564 1.8124329 5.312171 15
-16.609034 1.8282357 5.5865531 15
-16.638969 0.6412797 2.1810472 11
-17.761768 1.1705278 23.882038 9
-17.201473 1.7693853 10.362844 13
-17.078255 1.7759055 10.529236 13
-17.807255 1.9204828 23.869841 10
-18.06414 1.1651572 23.863367 9
-17.543915 1.7481465 9.8414698 13
-17.44371 1.7561598 10.014223 13
-18.090721 1.9192097 23.851961 10
-17.236357 -0.33669248 2.1618338 8
-17.250786 0.061567884 2.1771655 9
-17.26502 0.37762013 2.1705637 10
-17.259247 0.69250894 2.1703367 11
-18.374989 1.1603903 23.851639 9
-17.228758 1.004216 2.1773348 12
-17.339432 1.3404469 2.1429267 13
-18.400494 1.918714 23.83765 10
-18.64653 1.1562669 23.839924 9
-18.777201 1.9185463 23.820366 10
-17.868246 1.7379652 3.3745832 14
-17.889492 1.7404984 3.7626133 14
-17.901894 1.7440344 4.053299 14
-17.912127 1.74822 4.2625747 14
-17.923107 1.7556287 4.569747 14
-17.908504 1.7616057 4.9253325 14
-17.832233 1.755415 5.1869583 14
-17.812284 1.7669262 5.5641456 14
-17.821817 1.7829832 5.8569379 14
-17.816677 1.7889806 5.9866319 14
-17.919029 -0.35757524 2.0691988 8
-18.029215 0.072967723 2.112843 9
-17.97794 0.41273931 2.1060791 10
-17.985161 0.7534312 2.1028736 11
-18.959709 1.151033 23.816269 9
-18.394516 1.6807801 8.0323505 13
-18.379377 1.6914548 8.1802559 13
-18.390156 1.7254403 8.5349293 13
-18.401173 1.7563304 8.8396454 13
-18.405228 1.7774645 9.044467 13
-19.09507 1.9185179 23.803356 10
-18.132839 -0.36142153 2.1993792 8
-18.176159 -0.35875294 2.4263754 8
-18.165619 0.07601963 2.2188544 9
-18.198505 0.078641221 2.4410045 9
-18.405312 0.11125807 4.3677711 9
-18.411249 0.12126566 4.8299317 9
-18.427185 0.13186447 5.2639217 9
-18.178421 0.42265189 2.2124033 10
-18.217831 0.42488876 2.4330261 10
-18.438879 0.45762098 4.398891 10
-18.428429 0.46618843 4.8236723 10
-18.42794 0.47802442 5.2913079 10
-18.468517 0.49277347 5.7216825 10
-18.48988 0.50682127 6.1153765 10
-18.435856 0.80111194 4.3438873 11
-18.428608 0.65576589 4.5957799 7
-18.447119 0.76483482 4.9032226 9.666667
-18.428288 0.74332857 5.0696144 9
-19.185427 1.146845 23.791653 9
-18.194611 0.76998615 2.2068293 11
-18.233038 0.7716645 2.4277349 11
-18.430149 0.79581118 4.0535464 11
-18.449368 0.80840182 4.6523204 11
-18.447741 0.82366216 5.2527747 11
-18.458855 0.83388984 5.5471935 11
-18.453068 0.84421194 5.8589683 11
-18.4617 0.85620093 6.1489391 11
-18.472549 0.87019539 6.4597921 11
-18.179359 1.1156275 2.1720314 12
-18.239754 1.1188282 2.4226336 12
-18.239311 1.4736639 2.2598677 13
-18.253506 1.4722782 2.4158146 13
-18.638229 1.6599759 7.3056107 13
-18.566723 1.6678847 7.5573435 13
-18.454037 1.67767 7.890707 13
-19.262611 1.9183098 23.790937 10
-18.566025 -0.36693701 2.5843489 8
-18.576042 -0.36195102 2.8776624 8
-18.591972 -0.35900173 3.0626633 8
-18.58606 0.086551502 2.600378 9
-18.585072 0.090307072 2.9128766 9
-18.575424 0.093436435 3.1554732 9
-18.621296 0.098498568 3.447556 9
-18.594534 0.10872491 4.0711436 9
-18.681679 0.11279272 4.20678 9
-18.715034 0.12129013 4.593966 9
-18.748531 0.13438453 5.1424432 9
-18.597263 0.44451407 2.5941749 10
-18.597923 0.44627583 2.90626 10
-18.546574 0.44537157 3.1239824 10
-18.614777 0.45223713 3.4611726 10
-18.608658 0.46044368 4.0647669 10
-18.728374 0.47027946 4.2690711 10
-18.731462 0.47679174 4.5874453 10
-18.758593 0.49115217 5.1359591 10
-18.598291 0.64116436 3.6449656 7
-18.507732 0.64866817 4.148859 7
-18.594448 0.65873361 4.2839799 7
-18.598166 0.66801679 4.5973792 7
-18.724562 0.68467325 4.856854 7
-18.777023 0.70071542 5.2689323 7
-18.772346 0.70410883 5.3923836 7
-18.613564 0.80319893 2.5880833 11
-18.979607 0.98731852 7.9067698 11
-19.020693 1.0892745 9.4014797 11
-18.526875 1.1510028 2.5902929 12
-18.64459 1.5292588 2.5801353 13
-18.882744 1.6259969 6.131032 13
-18.817738 1.6326884 6.449543 13
-18.781414 1.6383559 6.6445398 13
-18.723515 1.6477171 6.9364305 13
-18.721615 -0.36671326 2.8391385 8
-18.762655 0.090326235 2.6802008 9
-18.786465 0.10276683 3.541908 9
-18.788761 0.1060854 3.7379327 9
-18.804077 0.46290469 3.5347693 10
-18.810488 0.4659707 3.7393887 10
-18.526249 0.53686082 -3.3396382 10
-18.777737 0.45401311 2.6730976 10
-18.803131 0.65026569 3.4392295 7
-18.814417 0.65888816 3.7251775 7
-18.845497 0.6676209 3.9591031 7
-18.795868 0.81847978 2.7591105 11
-18.797939 0.81898963 3.0402348 11
-18.806389 0.82115805 3.3417561 11
-18.823086 0.825791 3.7164102 11
-18.952745 0.92786574 6.828352 11
-18.993452 0.94087136 7.0266123 11
-18.995993 0.95632017 7.3245668 11
-18.98629 0.97434258 7.6718245 11
-19.090834 1.0160894 8.2346916 11
-19.072052 1.0330586 8.5265484 11
-19.095831 1.0541425 8.8180294 11
-19.086452 1.0738512 9.1148586 11
-19.076237 1.0866081 9.3060961 11
-18.556692 0.98562253 -3.3580651 11
-18.795647 1.1819208 2.7426753 12
-18.807838 1.1819748 3.0340283 12
-18.818329 1.1832204 3.3352206 12
-18.835302 1.1872274 3.7279284 12
-18.84836 1.1917442 4.0222278 12
-18.857971 1.1956536 4.2178078 12
-18.868656 1.2025925 4.5294895 12
-18.885857 1.2138677 4.9237223 12
-18.896898 1.22357 5.2187142 12
-18.910135 1.2351158 5.5169239 12
-18.92535 1.2481765 5.8172979 12
-18.938887 1.2626656 6.1205912 12
-18.95145 1.2783729 6.4266472 12
-18.966496 1.2955981 6.7279186 12
-19.021122 1.3188763 7.0325851 12
-19.029758 1.3366022 7.3132048 12
-19.033604 1.355507 7.6059752 12
-19.028934 1.3748444 7.9010181 12
-19.10844 1.4072769 8.2289104 12
-19.087933 1.4268643 8.5201283 12
-19.105234 1.45149 8.8090076 12
-19.115366 1.4731544 9.0596561 12
-19.115314 1.4868877 9.222599 12
-18.575348 1.4301176 -3.2974868 12
-18.823328 1.5541576 2.7697446 13
-18.828384 1.551737 3.1092186 13
-18.842262 1.552683 3.4264266 13
-18.854427 1.5552951 3.720593 13
-18.863567 1.5588815 4.0153184 13
-18.872169 1.5626379 4.2109942 13
-18.886917 1.5703572 4.5230074 13
-18.902065 1.5820712 4.9172077 13
-18.913212 1.5926253 5.2121181 13
-18.925037 1.6044723 5.4921441 13
-18.932184 1.6158401 5.7462163 13
-18.924486 1.6230476 5.9362001 13
-19.105194 1.5024441 9.4151287 12
6.4513941 2.0147743 10.312037 10.171
6.300292 2.0191898 10.708435 10.17025
6.2798529 2.5865707 10.691909 11.17025
5.9302216 1.9937478 11.011566 10.1695
5.9142618 2.5537479 10.993997 11.1695
6.2269297 3.5696645 8.8038616 13.1735
6.2152977 3.589185 9.0857449 13.173
5.0494938 2.441803 11.197941 11.1685
4.958313 2.7468724 8.4577293 12.1735
4.7518635 2.7216394 8.6563797 12.173
4.6555443 2.7196457 8.8824482 12.1725
4.4441338 2.7517524 9.8040848 12.1705
3.8785372 3.2865767 11.175575 13.1675
2.7963181 2.76455 8.280941 13.1725
0.79720306 1.5278761 7.118165 11.174
0.87217331 1.8481346 6.4294195 12.176
0.787714 1.8719811 7.109045 12.174
0.77536583 2.221148 7.099093 13.174
-0.073616982 2.3044989 6.3945141 14.1755
-0.43109226 2.4257009 8.5545635 14.1685
-0.41515255 2.4531081 8.740715 14.168
-0.56633282 2.4300184 8.8451777 14.1675
-0.58319044 2.4492545 9.0195084 14.167
-1.8758516 0.90114486 7.7323017 10.169
-1.8660779 1.2960833 7.7303505 11.669
-1.8317327 1.4487016 7.8905849 12.1685
-1.5801368 1.6127936 5.9631166 13.176
-1.7839522 1.7415291 7.9844103 13.16825
-1.7491488 1.9594558 7.3748536 14.1705
-1.7389727 0.23664014 0.97328472 8.0155001
-1.7526894 0.23954831 1.2076077 8.0147495
-1.7640781 0.24254183 1.4346991 8.0139999
-1.7830482 0.2498381 1.9375172 8.0122499
-1.6954288 0.51485598 -0.05243206 9.0185003
-1.1957078 0.74034995 -10.79213 9.0334997
-1.7946291 1.2783053 1.9661973 12.012
-2.0273347 2.2113347 7.7871966 15.1685
-2.3336067 0.23090814 2.4686816 8.0109997
-2.4052572 0.23088337 2.6729419 8.0102501
-2.610517 0.43620369 7.0272102 8.6704998
-2.4348307 1.8578249 2.5575411 15.0105
-3.1318388 0.45640671 5.7900624 9.1754999
-3.343421 0.39335814 -0.37432957 9.0232506
-3.5800276 0.14920531 1.2470241 8.0185003
-3.567606 0.35891861 2.6439307 9.0122499
-3.52035 0.2422284 5.787806 8.1750002
-3.4855437 0.65502429 2.64873 10.512
-3.5895553 1.1219655 2.619163 13.01225
-3.593164 1.3199261 2.6122127 14.01225
-3.8376279 0.35830641 -0.40113115 9.0247498
-3.7339535 0.14138408 1.2266064 8.0190001
-3.9079132 0.33056992 2.6357374 9.0129995
-3.9565144 0.30215847 5.773571 8.6745005
-4.2666698 0.22305004 6.4578028 8.1700001
-3.829433 0.65408647 2.6376123 10.76275
-4.0092993 0.54614466 5.772809 10.1745
-3.8809185 1.0588664 2.6244349 13.012833
-3.5762577 2.2809668 -2.4639559 15.0285
-4.2111998 0.33263969 -0.42938471 9.026
-4.3331604 0.12284812 2.0235672 8.0172501
-4.3865323 0.34455281 2.6355703 9.3474998
-4.4247684 0.34165743 5.7616014 9.1738329
-4.5786543 0.35782841 6.4088707 9.1695004
-4.4922414 0.29162851 6.5338078 8.6689997
-4.3570251 0.70751005 2.6344867 11.514
-4.300693 1.0849186 2.6213403 13.347167
-4.3985395 1.2955732 2.5808048 14.01425
-4.5208611 0.31126338 -0.41377783 9.0270004
-4.5033431 0.11381291 1.9790435 8.0179996
-4.7242804 0.33994472 2.6124482 9.5152502
-4.8449588 0.25466841 5.8186741 8.744072
-4.6958923 0.66788077 2.6080656 11.615099
-4.7275944 1.1244984 2.5763352 13.51525
-4.957139 0.28176701 -0.38951397 9.0284996
-5.1438971 0.37020412 2.5937493 10.01675
-5.1204939 0.28796381 5.8214707 9.1719999
-5.1759109 0.57629573 2.6018434 11.51675
-5.1458831 0.53664607 5.7530107 11.1725
-5.1114578 1.0391343 2.5978646 13.6164
-5.347477 0.062685817 1.0985713 8.0252504
-5.5341778 0.27792117 2.5700145 9.6184998
-5.4992371 0.55659658 2.5863383 11.446714
-5.5193505 0.99624014 2.560199 14.01825
-5.7200775 0.044867795 1.0304632 8.0272503
-5.7323136 0.0536833 1.9279115 8.0232506
-5.6696162 0.057599399 2.0097485 8.0225
-5.7760029 0.30216137 2.5830986 10.0195
-5.77526 0.58931255 2.5916598 11.686
-5.7900362 0.86242586 2.5618749 13.5195
-6.2260056 0.20640327 -0.4964571 9.0340004
-6.1774616 0.023981456 0.99718571 8.0297499
-6.0234847 0.034198862 1.3559549 8.0275002
-6.3122683 0.26216307 2.5809124 10.165358
-6.5506096 0.22355582 5.6958551 9.6677494
-6.337348 0.61835241 2.5508606 12.451285
-6.62111 0.47394681 5.7237821 12.167
-6.4297781 0.78057092 2.5106959 14.0235
-6.6978464 0.26052153 2.5468481 10.5254
-6.6834316 0.20935278 5.6925087 9.6669998
-6.5049314 0.59881556 2.5220289 12.524
-7.0312014 0.46065277 5.727354 13.164
-7.1894674 -0.011048954 2.0821788 8.0321255
-6.9416151 0.24518393 2.537281 10.427401
-7.1164308 0.51204264 2.5055215 12.695666
-7.3749695 0.44610786 5.7331748 14.1605
-7.3882799 0.11479582 0.6574471 9.0380001
-7.3235369 -0.025121562 0.93738103 8.0369997
-7.4163237 -0.02282685 1.7949636 8.0352497
-7.337327 -0.017949261 2.0078104 8.0337505
-7.3429465 0.23946063 2.5567505 10.531
-7.682107 0.23593856 5.6614408 11.782249
-7.5782337 0.38322574 0.76057982 11.039
-7.5983996 0.50080299 2.4781721 13.319715
-7.69275 0.13435508 -0.5632782 9.0415001
-7.6161003 0.10317802 0.67834926 9.0395002
-7.9853983 -0.047291785 1.5161216 8.0410004
-8.0091286 0.020828974 2.5446351 8.8720827
-7.8661642 0.29195467 5.6559844 13.4875
-7.8334036 0.49304056 2.4592922 13.536751
-8.1999741 -0.059160493 0.88943768 8.0434999
-8.0862513 -0.051553853 1.4430258 8.0419998
-8.1337576 -0.052883498 1.5125659 8.0423326
-8.421299 -0.058921371 2.25055 8.0445004
-8.1867905 0.024739083 2.563092 9.0410004
-8.4064426 0.097084552 5.6305056 10.1415
-8.7897406 -0.07999187 0.876261 8.0480003
-8.5669575 -0.064258866 2.2204781 8.0462494
-8.8930855 0.12944499 5.6354961 11.502937
-8.8872576 -0.083210573 0.88562226 8.0487499
-8.9454632 -0.082833484 1.2651436 8.0495005
-9.2272892 -0.089246765 1.6853681 8.0524998
-8.9909534 -0.016070168 2.4922259 8.7183332
-9.0486536 0.17602178 5.6641588 12.290833
-9.1412973 0.44222254 2.4123404 13.553249
-9.3570862 -0.09117566 1.9955487 8.0545006
-9.4779854 -0.0085760877 2.4251037 8.890666
-9.4260044 0.4385258 2.4121349 13.389889
-9.811532 -0.1030116 2.1526911 8.0594997
-9.7783546 0.018352609 2.4407699 9.2606001
-10.194579 -0.12757009 0.27950716 8.0565004
-10.236931 -0.12372069 0.97172356 8.0585003
-10.035735 0.19518206 -5.4372201 9.0504999
-10.576849 0.49199247 2.8700075 13.5705
-11.39531 -0.063897669 2.3812771 8.6718998
-11.871363 0.087819323 6.7622089 9.1077499
-11.884538 0.10663119 7.1136608 9.1097498
-11.899748 0.096563265 7.4882479 8.9116497
-11.916103 0.070643142 7.8993325 8.6134996
-11.932708 0.088697404 8.2769775 8.6150007
-11.950116 0.10963343 8.7043037 8.6164999
-11.966116 0.12965685 9.1049728 8.6177502
-11.978262 0.14793248 9.4627705 8.6187496
-11.996258 0.13032053 9.834816 8.4530001
-12.021573 0.30460149 10.27742 9.1207504
-12.041861 0.10476951 11.062016 8.1222496
-12.063386 0.12217633 11.527584 8.1230001
-12.075995 0.13479407 11.861525 8.1234999
-12.089261 0.14861275 12.225721 8.1239996
-11.568012 0.24601923 2.4273915 11.073
-11.920481 0.41782624 8.1207132 10.6145
-11.485678 0.76250374 2.3981738 14.0725
-11.259436 -0.22761777 -10.066725 8.0515003
-11.540977 0.076217502 -2.2231355 9.0579996
-11.586532 0.063250363 -1.7146182 9.059
-12.053268 0.034402769 5.4951992 9.0982494
-11.994363 0.29410574 7.6305752 10.112
-12.644648 2.1137059 12.87409 14.1235
-11.531477 -0.23638585 -10.096088 8.052
-12.308087 -0.0013413765 1.6654344 9.0719995
-12.261203 -0.0037353523 1.9071424 9.073
-12.424164 0.039929148 5.4803801 9.0974998
-12.139118 0.43343621 2.3673034 12.075
-12.291048 0.85429013 2.3430943 13.6754
-12.936652 2.1026182 12.737762 14.1225
-12.803892 2.1150994 12.83353 14.123
-12.554641 -0.0017511733 1.9488275 9.0742502
-12.720748 0.044288468 5.4689417 9.0970001
-12.824441 0.76242518 2.3246017 13.577
-12.676222 0.99479771 2.3132796 14.0765
-13.222779 2.0906479 12.586973 14.121501
-13.356045 2.1052556 14.345373 13.1235
-12.885641 -0.24485229 -5.3724418 8.0579996
-13.088544 0.0023604594 2.3288867 9.0777502
-13.055933 -0.029681299 5.4561129 8.5965004
-13.112663 0.26937562 2.3170106 10.57775
-13.133003 0.81050879 2.3070717 13.57775
-13.619743 2.0636604 12.311542 14.12
-13.718849 2.0998769 14.219679 13.1225
-13.45668 -0.030309264 5.4404607 8.5959997
-14.142078 1.9299911 11.429556 14.117
-14.148203 2.0363116 11.943241 14.118
-13.952851 2.0470488 12.088115 14.11875
-14.132712 2.0783315 13.981415 13.12125
-14.419882 2.11782 16.543369 12.1235
-13.927404 -0.031115908 5.4210024 8.5955
-14.492421 1.9108632 11.131935 14.1155
-14.318985 1.9204144 11.282789 14.11625
-14.299538 2.0385041 11.876869 14.1175
-14.522686 2.0533569 13.710428 13.12
-14.818165 2.0919888 16.298128 12.1225
-14.600178 2.0985494 16.388346 12.123
-14.288303 -0.21888457 0.83816028 8.0745001
-14.381466 -0.13379535 5.3854632 8.0950003
-14.721048 1.9794744 9.7582817 15.1115
-14.887476 1.9389348 12.934128 13.118
-14.83137 2.0349169 13.489286 13.119
-15.116379 2.0755341 16.121281 12.12175
-14.648861 0.022602078 2.3463624 9.0810003
-14.55876 -0.20048256 2.3804634 8.0810003
-14.682119 0.36430296 2.332099 10.581
-14.83498 0.72527337 2.2722764 12.081
-14.708486 0.94125539 2.3193073 13.081
-14.589181 1.1526713 2.3636065 14.081
-14.637707 1.3958472 2.34515 15.081
-15.253775 1.9255966 8.9454193 15.108
-15.083725 1.9472893 9.2474308 15.10925
-14.942059 1.9822124 9.576334 15.1105
-15.408808 1.9937724 12.995438 13.117
-15.272181 2.0054462 13.128571 13.1175
-15.410412 2.0590639 15.937502 12.121
-14.938604 1.7774329 -0.54918432 15.07175
-15.129438 1.7686815 -0.25094366 15.073
-15.189277 1.7574788 -0.086867332 15.0735
-15.562194 1.9227725 8.562748 15.10625
-15.386045 1.923672 8.7826424 15.10725
-15.55089 1.9850107 12.872576 13.1165
-15.81194 2.0423071 15.706203 12.12
-15.980185 2.1103497 19.769165 11.1235
-15.354555 1.5505931 2.3354192 15.082
-15.355503 1.7698565 0.053737164 15.07425
-15.939094 1.8827829 7.7428551 15.103
-15.83795 1.9070578 8.0780363 15.10425
-15.67215 1.9173973 8.3851957 15.1055
-15.915159 1.8775606 9.8469372 14.10925
-16.102016 1.9598652 12.411887 13.114499
-16.257824 2.0088875 15.33507 12.11875
-16.384804 2.0941291 19.58576 11.12275
-15.76018 -0.22579025 2.2055514 8.0819998
-16.131927 -0.16408119 5.4068475 8.0942497
-16.092232 1.4326695 2.227767 14.0825
-15.888128 1.7247461 -1.4366436 14.0715
-15.936228 1.6728985 2.4165888 15.083
-16.047794 1.6825429 2.7285755 15.084249
-16.346563 1.836907 6.4938354 15.098249
-16.256781 1.8477967 6.8270335 15.0995
-16.171787 1.8719372 7.2361331 15.101001
-16.091162 1.8943619 7.5781012 15.10225
-16.46789 1.8908417 9.3582897 14.107
-16.375439 1.9088835 9.5838032 14.10775
-16.480053 1.9513329 12.119016 13.11325
-16.713627 1.9828399 14.981911 12.1175
-16.537455 1.9939579 15.128796 12.118
-16.802095 2.0822227 19.423199 11.122
-16.272005 0.10418634 5.4819922 9.0944996
-16.452438 1.497461 2.2610812 14.083
-16.120125 1.7253455 -1.1610866 14.0725
-16.312601 1.7125562 -0.79446602 14.07375
-16.520838 1.7819662 2.8968458 15.08525
-16.530031 1.7759409 3.1796808 15.08625
-16.496729 1.8155994 5.748209 15.0955
-16.47699 1.8296614 6.0259047 15.0965
-16.479256 1.8512958 6.3096399 15.0975
-16.736603 1.8800286 8.9574165 14.1055
-16.630423 1.8915706 9.1733704 14.10625
-16.771652 1.9248103 11.743862 13.112
-16.69231 1.9442765 11.928491 13.1125
-17.184093 2.0623772 19.194408 11.12125
-16.8461 -0.24663003 2.1537704 8.0830002
-16.794359 0.052874785 2.1671712 9.0830002
-16.823792 0.65506607 2.1552677 11.083
-16.861273 0.96060014 2.141609 12.083
-17.462395 1.8274028 13.523952 12.114
-16.438534 1.7096704 -0.58532286 14.0745
-17.15226 1.846418 8.0875664 14.1025
-17.051125 1.8638586 8.3950768 14.1035
-16.878166 1.8783578 8.7589674 14.10475
-17.371374 1.9431173 14.405012 12.1155
-17.568207 2.0443785 18.969511 11.1205
-17.203856 -0.18592444 5.2855473 8.0935001
-16.969513 1.5931814 2.2617316 14.0835
-16.955936 1.5886744 -2.2821064 13.0715
-17.215416 1.6330272 2.4306498 14.084249
-17.253181 1.6331073 2.6595597 14.085
-17.557953 1.8050982 6.8720093 14.0985
-17.472874 1.8152558 7.1808195 14.0995
-17.224869 1.8008713 7.5216589 14.10075
-17.260677 1.8426729 7.8713708 14.101749
-18.013195 2.0079994 18.570198 11.1195
-17.779366 2.0234621 18.753679 11.12
-17.669182 1.7082661 2.8104703 14.085751
-17.739975 1.7173744 3.0413661 14.0865
-17.745239 1.7860086 6.0909882 14.096
-17.693504 1.7967188 6.4089127 14.097
-17.562584 1.7932485 6.7085848 14.098
-17.847439 1.789749 9.7654028 13.106
-18.097689 1.8966926 13.670877 12.11325
-18.365826 1.9874159 18.305126 11.11875
-17.88166 1.4199439 2.1763537 13.084
-18.570465 1.7639841 12.306319 12.11025
-18.733322 1.8689493 17.211826 11.117
-17.56601 1.6590968 -2.2792282 13.0725
-17.624588 1.6364036 -1.9578667 13.07325
-17.820414 1.6311588 -1.6243801 13.07425
-18.399649 1.8033644 9.2092581 13.104
-18.276432 1.8256123 9.5705662 13.105
-18.574856 1.8164266 12.734407 12.111
-18.574535 1.8716971 13.176161 12.11175
-18.220617 0.49433434 -2.5349951 10.073
-18.123055 0.47491187 -1.96069 10.074
-18.148376 0.47008359 -1.7370224 10.0745
-18.290874 0.4268536 1.7115114 10.083
-18.838949 1.0883143 9.4403896 11.104
-18.739189 1.1293699 10.058675 11.1055
-18.53672 1.1338754 10.289873 11.10625
-18.552576 1.1762035 10.769014 11.10725
-18.973133 1.4248147 18.509161 10.118
-18.264267 1.4912401 1.7132807 13.083
-18.742374 1.5328907 10.04571 12.1055
-18.55962 1.5382444 10.287758 12.10625
-18.582832 1.5909402 10.771615 12.10725
-18.984261 1.7270502 11.658148 12.1085
-18.802111 1.7409028 11.930242 12.10925
-19.100401 1.8331136 16.771849 11.116
-18.868639 1.8419333 16.935061 11.1165
-18.694778 1.8823937 9.5614834 13.1045
-18.394337 -0.34366885 -2.1544662 8.0740004
-18.794695 0.15009947 5.5739059 9.0939999
-18.78599 0.16033722 5.9330082 9.0950003
-18.774458 0.50514609 5.4751148 10.09375
-18.808426 0.52469134 6.0183067 10.09525
-18.825985 0.53551674 6.2938156 10.096
-18.584381 0.99479544 -3.6414342 11.0715
-18.588104 0.92582035 -2.2775102 11.074
-18.602236 0.91573 -2.035131 11.0745
-19.037193 1.0089153 8.0565987 11.1005
-19.082861 1.1415973 9.8927355 11.10475
-19.160513 1.2855504 11.527497 11.108
-19.207754 1.3288256 11.963308 11.108749
-19.24757 1.0582886 14.289618 10.1125
-19.274057 1.0894897 14.657373 10.113
-19.292643 1.1216139 15.034231 10.1135
-19.366386 1.1611929 15.47645 10.114
-19.415779 1.234768 16.311731 10.115
-19.454527 1.2764786 16.774454 10.1155
-19.424763 1.3117797 17.177999 10.116
-19.475807 1.3589933 17.689335 10.1165
-19.412861 1.3940216 18.087772 10.117
-19.335466 1.4284943 18.478222 10.1175
-18.58202 1.3862686 -2.7940631 12.073
-18.598049 1.3613896 -2.4115615 12.07375
-18.623142 1.3396968 -2.046598 12.0745
-19.070002 1.3984824 8.0558748 12.1005
-19.102959 1.5557721 9.8882351 12.10475
-19.185686 1.7318199 11.526052 12.108
-19.205925 1.3678163 12.377522 11.1095
-19.285944 1.4067236 12.727192 11.11
-19.241665 1.4450715 13.142012 11.11075
-19.24548 1.492756 13.610586 11.1115
-19.326992 1.5380964 14.002985 11.112
-19.274433 1.565589 14.292952 11.1125
-19.292938 1.6050556 14.653261 11.113
-19.30917 1.646063 15.02397 11.1135
-19.401506 1.7018422 15.487923 11.114
-19.442303 1.7965277 16.314405 11.115
-19.437065 1.8435515 16.728018 11.1155
-19.566086 1.7219639 21.533592 10.12
-19.604656 1.7934645 22.263697 10.1205
-19.706146 1.8800176 23.134773 10.121
-18.576031 1.447564 -3.6290555 12.0715
0.80108976 1.5050955 7.052516 11
0.79810762 1.8153083 7.0172439 12
