# .PCD v0.7 - Point Cloud Data file format
VERSION 0.7
FIELDS x y z intensity
SIZE 4 4 4 4
TYPE F F F F
COUNT 1 1 1 1
WIDTH 1310
HEIGHT 1
VIEWPOINT 0 0 0 1 0 0 0
POINTS 1310
DATA ascii
1.4607179 0.6750685 -3.9918327 9
1.5323558 0.87551677 -3.9923921 10
-0.10754359 1.0469749 -3.9973211 11.5
1.5843415 1.0744772 -3.9995451 11
-0.13895375 1.1428095 -3.9956698 12
-7.5766096 1.2486327 -3.9975297 12.027
1.5671304 1.2685516 -3.9940777 12
-1.9600345 1.3225107 -3.9958892 13.012
-8.1648998 1.3300675 -3.9964252 12
0.82522273 1.5049344 -3.9953129 14
-8.1421137 0.022025876 -3.9861927 8
-8.1408081 0.34664065 -3.9852343 9
0.19722259 0.63955528 -3.9800391 9
0.94192219 0.63444877 -3.9899168 9
-8.1382456 0.67319655 -3.9835773 10
1.4983032 0.67792064 -3.9819031 9
0.21032357 0.71939063 -3.9892607 9.5
-0.098332226 0.75535268 -3.9884553 10
-0.04726994 0.75754219 -3.9805007 10.0025
0.19707018 0.95362103 -3.9874229 11
-8.15275 0.99932504 -3.9897237 11
2.1549621 1.0634736 -3.9826875 10.83575
0.86263525 1.1698551 -3.9836261 12
2.5713224 1.1786513 -3.9803627 11.411375
0.18235797 1.2711569 -3.9862509 12
0.88759667 1.2992209 -3.9827514 12.5
-0.26167572 1.328908 -3.9870927 13
0.15723968 1.5112857 -3.9824672 13.5
-1.9979776 1.616598 -3.9883199 14.0135
-8.1790428 1.6636994 -3.9856033 13
-0.08089149 0.46552992 -3.9718385 8.5
0.36154202 0.476928 -3.9779878 8.4004993
1.0051775 0.54422337 -3.9725218 8.5
-0.13031465 0.55830342 -3.9719419 9
1.2575282 0.65855122 -3.9724717 9
0.9273479 0.89264035 -3.974345 10.5
-0.14132369 0.94540757 -3.9787235 11
1.2173319 1.1366076 -3.9722805 11.5
-7.5807118 1.2468115 -3.9756947 12.0285
-0.22645909 1.2514273 -3.977263 12
0.15964514 1.2682873 -3.9771194 12
0.13473716 1.5087974 -3.9757981 13.5
-2.0540316 1.6309674 -3.9741094 14
1.0744019 1.7117405 -3.9756923 13.5
-0.16830003 0.45987064 -3.9684777 8
-0.42366588 0.53906691 -3.9672484 9.0045004
0.27400827 0.54091996 -3.9662423 8.3341665
0.2634595 0.64387858 -3.9649031 9
-0.14421999 0.75158405 -3.9697571 10
0.25386265 0.77572054 -3.9607031 10
1.2406831 0.84927702 -3.9600825 10
-2.0271964 0.86824435 -3.9619169 12
-2.0935652 0.8700316 -3.9651666 12
0.85525906 0.94055295 -3.9666836 11
-1.9846739 1.0637307 -3.9616113 12
2.389895 1.1136006 -3.9600449 11
2.4152484 1.1168877 -3.9608066 11
2.3699069 1.4161232 -3.9654217 12
-0.24167246 1.4925493 -3.9664073 13.5
2.4044557 1.4988068 -3.9628453 12.5
0.8827244 1.501591 -3.960932 14
-7.5577989 1.5742275 -3.9611411 13.0285
-7.5326853 1.5849266 -3.9664748 13.027
2.3589611 1.646204 -3.9614539 13.5
2.3891454 1.7313251 -3.9669688 14
0.94275516 1.7948759 -3.9606509 14
0.84693998 0.2654888 -3.951894 8
-8.1480923 0.34656191 -3.9520154 9
-0.16484487 0.36330515 -3.953723 8
-1.9412194 0.5280968 -3.9503951 9
0.88514966 0.60495973 -3.9511425 9.5
0.94489419 0.64860636 -3.9515636 8.666667
-0.18345279 0.69440585 -3.9597998 9.5
0.85891891 0.7157383 -3.9508488 10
-1.9012998 0.83938897 -3.9550867 11
0.24363488 0.9067623 -3.9569364 11
-0.21553808 0.92807698 -3.9524174 11
0.82030892 0.93699586 -3.9539926 11
0.22974062 1.0286573 -3.9510999 11.333333
-2.0633841 1.0639747 -3.9565649 12
1.6314452 1.0610096 -3.9509258 11
1.7173949 1.0700666 -3.9568586 11
1.850999 1.0843643 -3.9581895 11.17075
-1.9186569 1.0913391 -3.9565997 12
-1.9248413 1.1548378 -3.9548481 12
-2.0388439 1.1650865 -3.9594529 13
0.2241616 1.1733276 -3.9501047 12
0.8543216 1.5520018 -3.9544859 13.5
0.9392904 1.5966604 -3.9526091 13
-2.071348 1.6275966 -3.9535558 14
1.5837468 1.7130617 -3.9519391 14
-0.2772308 1.7833457 -3.9555542 14
2.1949978 2.0063245 -3.9585989 14.172
-1.9792689 0.093500003 -3.9482341 8
0.36195469 0.23370925 -3.9428332 8.0004997
-1.9798194 0.26558965 -3.9409952 9
0.8860997 0.26841196 -3.9406445 8
-0.21191978 0.36014736 -3.9416904 8
-0.33602905 0.44897741 -3.9435267 8.0047503
1.5233121 0.57411778 -3.9491467 8
-0.14624262 0.61645281 -3.940208 9
-0.13312936 0.61736357 -3.9423411 9
1.5413953 0.8130663 -3.9454174 9.5
-2.0137129 1.0614566 -3.9412642 12
-0.21947134 1.0966479 -3.9445488 12
-2.018388 1.1410631 -3.9417315 13
-8.0604572 1.2888334 -3.9474604 12.028
-2.0320592 1.2835475 -3.9485807 13
-0.22347355 1.3246472 -3.9460952 13
-2.0119405 1.6083257 -3.9449792 14
1.4893818 1.6989321 -3.9444027 14
-1.9761137 1.7357669 -3.9400101 14
2.0828104 1.7705185 -3.9498744 13.421125
-1.9421741 0.35089728 -3.9370036 8
1.0126723 0.44928849 -3.9309406 8
0.85216331 0.48981079 -3.9378588 9
-8.1106539 0.58735967 -3.9302499 10.028
-1.89211 0.60526991 -3.933387 9.5
-2.004833 0.69827461 -3.9320078 11.5
-1.9429027 0.70494032 -3.9322009 10
-0.14232588 0.74993503 -3.9380705 10
-1.9545823 0.8810097 -3.9300442 11
-0.15219361 0.88169432 -3.9341354 11
0.9168759 0.89255023 -3.931241 10.333333
-2.062042 0.93309957 -3.9366276 12
-2.0135736 1.0431567 -3.9382546 12
-0.19571429 1.0964252 -3.9318497 12
-0.16374367 1.0986727 -3.9372742 12
-0.15140367 1.1510494 -3.9301398 12
-2.0669634 1.1625438 -3.9354451 13
0.89186287 1.2585083 -3.9386215 12
1.4239755 1.2811853 -3.9395318 12
-8.2105808 1.2999423 -3.9368246 12
-2.0201848 1.3185391 -3.9372988 14
-1.9416057 1.3905033 -3.9314442 13.5
0.18560869 1.5414116 -3.9337463 13
1.41447 1.6054715 -3.9362311 13.5
-1.9779856 0.43803346 -3.9281988 10
1.8107628 0.62291944 -3.9242511 8
0.23600979 0.67264861 -3.9218118 10
1.4874548 0.67617315 -3.9285073 8.666667
1.7832364 0.68982863 -3.9231718 8.5
-1.9562922 0.80314946 -3.9219835 11
1.4615555 0.96380162 -3.9299164 10.5
0.98496747 1.0164862 -3.9294071 11
2.138 1.1511376 -3.9220057 11.538813
-1.997525 1.283543 -3.9287412 13
-2.0464582 1.4226649 -3.921443 13
-2.0353789 1.4222778 -3.9220395 13
-1.9782487 1.5175741 -3.9266262 13.5
2.5926051 1.6038078 -3.9203057 13.160924
2.5447543 2.0498834 -3.9224522 14.170499
-2.0100329 0.075331643 -3.9115641 8
-1.9948648 0.38087058 -3.9129407 10.0135
-0.88479602 0.43553749 -3.9178979 8.0059996
-0.11584115 0.49513412 -3.91187 8.6696663
0.2141428 0.67081904 -3.911094 10
1.6884643 0.68186569 -3.9148986 8.5
0.16266757 0.72144341 -3.9132624 9.7849998
1.5812311 0.74099469 -3.9127095 9
1.7959094 0.82905263 -3.9156449 9.5
-2.0091844 0.84738433 -3.9166362 12
0.18219703 0.84302163 -3.9189138 10.333333
-0.15740204 0.87110227 -3.9103692 11
0.19748929 0.89223987 -3.9177234 11
-8.1892986 0.9413473 -3.9129279 11
1.7748336 1.0351801 -3.9122939 11
1.1253705 1.2745953 -3.9140711 12
-2.0884972 1.4883963 -3.9119816 14
1.131573 1.5688096 -3.9121327 13.5
-1.0209401 1.7065206 -3.9131169 14
1.7256992 1.9364626 -3.9157016 14
1.8057088 1.9464227 -3.9165261 14
-2.0083001 0.22742486 -3.906513 9
-2.0349853 0.25058609 -3.9031391 9
-1.9782747 0.43691379 -3.90978 8.5
-1.8764673 0.45585364 -3.907198 9
1.6171577 0.60808277 -3.9042907 8
-2.050879 0.70307362 -3.90434 11
-1.9896785 0.70213538 -3.906599 10
-2.0443063 0.71329528 -3.9015756 11.6
-0.22246784 0.86688292 -3.9010308 11
-1.9987732 0.87795568 -3.9013085 11
-0.13431591 0.87175357 -3.9024136 11
1.816142 0.90050608 -3.9092216 10.166
1.1706605 0.93635356 -3.9027958 10.5
1.7647384 0.96452749 -3.9093399 10.5
-0.97422433 1.0006416 -3.9025869 11.5
-1.0188375 1.0993173 -3.9071145 12
-1.9965255 1.160892 -3.905375 14
1.6915244 1.4497365 -3.9095774 13
-1.9679295 1.5134389 -3.9043813 13
-2.0497155 1.6017903 -3.9041958 14
-1.0217122 1.6036975 -3.9050756 13.5
-8.0486689 1.6323012 -3.9079237 13.0295
-2.0070081 1.7306423 -3.9082403 14
-0.19523156 1.776213 -3.9075987 14
-2.0285802 0.047980145 -3.8979387 8
-2.0344124 0.36523169 -3.8921368 9.5
-1.0273942 0.40541276 -3.8929386 8.0089998
-0.10257018 0.42737621 -3.8915665 9
-2.0149074 0.45419836 -3.8941178 10
0.95137835 0.55920607 -3.8950305 8
-8.1698103 0.58833444 -3.8905623 10
0.94676733 0.6099807 -3.8930912 8.5
-0.1173802 0.64995873 -3.8909223 10
-1.8852609 0.66562831 -3.8955317 10
-2.0331271 0.7026149 -3.8976152 11
-0.28918487 0.86304963 -3.8970068 11
1.5535485 0.9414255 -3.8927636 10.5
-2.0064816 1.0006416 -3.8929441 13
-1.0864567 1.0550486 -3.8917484 12
-1.0366122 1.0565145 -3.8973856 12
0.88867921 1.1454026 -3.8946495 12
-1.9594294 1.1914626 -3.8944826 12.5
-1.0136486 1.2990248 -3.8965864 13
-8.178524 1.3255724 -3.8926039 12
-1.059819 1.3881752 -3.8943911 13
1.6328712 1.4565003 -3.8939617 13
-2.094841 1.4854661 -3.896183 14
0.89388388 1.5402642 -3.8902264 13.5
1.461669 1.9016856 -3.897506 14
-0.30331731 0.1925332 -3.8812711 8.0035
0.80537045 0.2645334 -3.8852332 8.1785002
-1.9264383 0.32880914 -3.8804195 9
-1.9995526 0.37912747 -3.8878272 10
-1.0208832 0.40575692 -3.8847337 8
-0.98384082 0.42879534 -3.8831427 8
-0.92399681 0.43268454 -3.8896589 8
1.4073679 0.47973672 -3.8896365 8
-0.99661517 0.48799926 -3.8876076 8.5
-0.96864569 0.5048995 -3.8814321 9
-2.0106936 0.53211617 -3.8894494 11
-0.19156301 0.53350043 -3.8802907 9.5
-1.0152907 0.56765133 -3.8862705 9
-0.90194523 0.70639467 -3.8886814 10
-0.95711184 0.73231316 -3.8842602 10
0.91105205 0.83727086 -3.8840804 10
-0.95899689 0.84514713 -3.8808808 11
-8.158392 0.9953531 -3.8815446 11
-2.0557599 1.1332699 -3.8871484 13
1.6371411 1.2253104 -3.8807485 12
1.6729324 1.2296491 -3.888839 12
-0.99411595 1.2681186 -3.8802421 13
-2.0654864 1.310739 -3.8853178 14
0.20091295 1.3598636 -3.8869014 13.5
-1.107329 1.3870319 -3.886385 13
-1.0496603 1.4033509 -3.8876894 13.5
1.4953852 1.4408132 -3.8813889 13
-2.0578785 1.5196713 -3.8875759 14
-1.066978 1.5528183 -3.8826303 14
1.5146595 1.5615976 -3.8874097 14
1.8238641 1.7228875 -3.8806682 13.422376
-1.0477704 1.7503067 -3.8864338 14
-0.97252655 1.7522839 -3.8899796 14.006
-3.0095456 0.07778208 -3.8784494 8
-2.0569406 0.15114376 -3.8772442 8.5
-2.0406995 0.17814851 -3.8762112 8.5
-0.24172032 0.19663478 -3.8741791 8
-0.17423081 0.20102569 -3.871197 8
-0.097209036 0.20596014 -3.8710177 8
-1.8792244 0.24679598 -3.8727741 8
-3.0084031 0.26490736 -3.8718228 9
-0.92085969 0.40992141 -3.8725429 8.5
-0.25650686 0.41795403 -3.8763101 9
1.2919233 0.47122759 -3.8734841 8
-0.95773757 0.56809485 -3.8769431 9
-0.96121526 0.63686019 -3.8708329 9.5
-2.0783124 0.65537912 -3.8749471 11
-8.1473074 0.67111605 -3.8772831 10
-0.95565081 0.70334584 -3.8791919 10
-2.0562894 0.76505649 -3.8703983 12
-0.95738065 0.77547204 -3.8739731 10.5
-2.0009458 0.79874659 -3.8730857 11
-1.0585941 0.80876374 -3.8750811 10.5
-1.0129088 0.81056488 -3.8797064 10.5
-1.9602808 0.87133038 -3.8763075 11
-1.016486 0.89726824 -3.8784828 11
1.2373803 0.97564268 -3.8730211 11
0.89882803 0.98900008 -3.879786 11
-0.98362696 1.0545235 -3.8750889 12
-0.97992241 1.0576987 -3.8745582 12
-0.98937476 1.1074125 -3.8775835 12
-2.0345595 1.2759972 -3.8721673 13
-1.0626503 1.29474 -3.8728738 13
1.2284316 1.3123205 -3.8745396 12.5
1.6800263 1.3248975 -3.8765931 12.166667
-0.98963916 1.3376396 -3.8724966 13.5
1.2048752 1.5153718 -3.8733759 14
-1.1156522 1.5528262 -3.8780112 14
-8.187521 1.6568925 -3.8789916 13
0.1496439 1.7214575 -3.8743677 14
-1.1375993 1.747296 -3.8749554 14
1.1631503 1.8658367 -3.8765624 14
-2.0524409 0.027918667 -3.8613136 8
-1.9600048 0.091054201 -3.8689868 8
-0.41399491 0.18591976 -3.8667095 8.0039997
-1.9724603 0.32659096 -3.868335 9
-1.935171 0.36998826 -3.8619609 8
-2.0490046 0.45540968 -3.864805 10.5
-2.0629644 0.47702807 -3.8621728 10
-0.029501081 0.54442871 -3.8631692 8.5
-1.9231936 0.55790234 -3.8677917 9.5
-0.24732804 0.64135897 -3.863189 10
0.25156617 0.77082896 -3.8649116 10
-2.081682 0.85838509 -3.8628836 12
-1.939073 0.87085074 -3.8644772 11
-2.0459113 1.0522625 -3.8664956 13.333333
-1.9725562 1.1423573 -3.867502 12
1.7799124 1.1681353 -3.8669956 11.666
1.4268255 1.2044116 -3.8684728 12
-3.0414679 1.2149074 -3.8612609 13
-0.070983231 1.2370497 -3.8642616 12
-1.1060793 1.282793 -3.8644674 13
-1.0613451 1.2842906 -3.8681304 13
-1.9978834 1.3809677 -3.8691828 13.5
-1.0498394 1.4082555 -3.8631766 14
1.1908654 1.4095957 -3.8639872 13
1.8789819 1.943338 -3.8617008 14.17325
-1.9001821 0.24568418 -3.8567548 8
-8.1716776 0.34641486 -3.8537836 9
-1.9372822 0.44617361 -3.8545649 8.5
-2.0456996 0.47628313 -3.8520103 10.25
0.24794137 0.58156109 -3.8551612 9
0.99656868 0.62631273 -3.8557909 8.5
1.0501434 0.65189266 -3.8557904 8.666667
-1.0157853 0.69942045 -3.8575301 10
-1.9531533 0.75249028 -3.8541114 10.5
-3.0299559 0.82921177 -3.8539548 12
-0.045805037 0.84966052 -3.85923 10.5
1.0250891 0.90105498 -3.8575912 10.333333
-2.0969911 0.92604274 -3.8594911 12
1.5147367 0.98465848 -3.8509448 11
1.5722144 0.99009454 -3.8569758 11
1.6735958 0.99915159 -3.8578713 11
-2.0313299 1.0343028 -3.8532927 12
-1.033192 1.0540442 -3.8562047 12
0.93287063 1.0762911 -3.852473 11
0.92329836 1.208588 -3.8546076 12
0.99813998 1.2614951 -3.8576412 12.333333
-2.0439029 1.2733881 -3.8526824 13
1.5730096 1.3583816 -3.8546762 12.6
0.92144847 1.3854151 -3.8583472 13
-3.0430448 1.4079983 -3.8586888 14
-0.087472677 1.4721432 -3.8587313 13.5
0.90225452 1.4741405 -3.8500643 14
0.96662867 1.4831384 -3.857409 14
0.0096925497 1.6137838 -3.8521008 13.5
-0.026659846 1.709635 -3.8561745 14
0.95666504 1.8421454 -3.8591068 14
-8.1563683 0.023327425 -3.845562 8
-3.0456879 0.25402728 -3.8413813 9
-0.94828677 0.31029272 -3.8402538 8
-3.0198975 0.63863569 -3.8438444 11
-0.11374217 0.6483795 -3.8485687 10
1.3177042 0.71193928 -3.8463235 9
0.97732091 0.81862998 -3.8453841 10
0.018233359 1.1320658 -3.8428931 12
1.1728711 1.1799958 -3.8499835 12
-8.2110138 1.2961512 -3.8462069 12
0.91889387 1.3408868 -3.8488817 13
-0.01020515 1.5141437 -3.8421149 13
-7.6522241 1.5901623 -3.8457015 13.0275
-8.9905815 1.748224 -3.8412712 13
-8.9247351 1.7400002 -3.8405492 13
-9.4356852 1.8396561 -3.8426337 13
-3.0080879 0.45111293 -3.8327441 10
-1.9735622 0.56266749 -3.838208 10
0.034329236 0.56660354 -3.8325195 9
1.2674185 0.63137478 -3.8314538 8.5
0.07981801 0.75792611 -3.8303351 10
-1.0254835 0.82510054 -3.8340871 11
0.15314591 0.95002735 -3.838809 11
-1.1082301 1.0494896 -3.8347952 12
0.036628842 1.0695647 -3.8381329 11.666667
0.9396261 1.1587867 -3.8318055 12
-8.3720188 1.3442551 -3.8304496 12
-2.7482119 1.6432958 -3.8325894 14.0135
-8.3121881 1.6719028 -3.8356967 13
-8.4180326 1.6874956 -3.8364782 13
-3.0475404 0.17065805 -3.8224888 8.5
0.1011523 0.47791326 -3.8252902 8.5
-0.97476077 0.52721739 -3.8282702 9.666667
1.3100076 0.52140278 -3.8218586 9
-1.032619 0.59978998 -3.8257225 10
-8.2589417 0.67584676 -3.8272953 10
-8.3657513 0.6815685 -3.8287787 10
0.012368023 0.75320625 -3.8218365 10
-3.0337186 0.76568419 -3.8207991 12
-1.0914196 0.82169282 -3.8217061 11
0.9448396 0.93631029 -3.8248036 11
-8.1974897 0.94009298 -3.8283651 11
0.053577662 0.94292301 -3.8257942 11
1.2191743 0.95826054 -3.8288157 11
-3.0400739 1.1174393 -3.8260629 13
-3.0776317 1.3096074 -3.8276148 13.5
-8.2636147 1.3316295 -3.8280377 12
-1.1298425 1.5772941 -3.8202202 14
-8.1672506 1.6465526 -3.8203113 13
-8.2277784 1.6539242 -3.8224952 13
-8.78508 1.7244406 -3.827564 13.0295
-2.081779 1.748587 -3.8200505 14
-9.4036455 1.8350955 -3.8209958 13.0335
-3.0238442 0.083452255 -3.8151934 8
-8.2991848 0.34896892 -3.8118124 9
-8.3763905 0.35071689 -3.8157568 9
-1.0618705 0.37192923 -3.811094 9
-3.0505998 0.50899005 -3.8173037 10.5
1.2159269 0.55150759 -3.8130126 8
1.4054 0.5649209 -3.8181062 8.1735001
0.96884137 0.60747814 -3.8143995 9.5
1.217224 0.62555361 -3.8133399 9.5
-3.059588 0.73263752 -3.8160329 11.5
1.381129 0.74916273 -3.8139021 10
-0.31466794 0.8590163 -3.8112569 12.003
-0.28812617 0.85350484 -3.8127551 12
0.16329229 0.87866402 -3.8125937 10.5
0.9436152 0.93505836 -3.8100841 11
-8.2427063 0.99979031 -3.816709 11
-8.3514156 1.0090325 -3.8193612 11
-2.1109817 1.1232567 -3.8140488 13
-0.29490957 1.1527804 -3.8182352 13
-0.30120862 1.2384809 -3.8132434 13
0.10605383 1.2361554 -3.8168712 12
-8.9033966 1.3594642 -3.8166754 12
-1.1442388 1.4301962 -3.812016 14
-0.29014146 1.5858901 -3.8139274 14
-0.25898561 1.5864148 -3.8118775 14
-8.1068335 1.6391957 -3.8177803 13
-2.0409732 1.71367 -3.8168063 14
-9.1934614 1.7765905 -3.810575 13.0315
-8.9846964 1.7717289 -3.8144231 13.033
-2.9226594 0.082286 -3.8081551 8.0187502
-0.97803676 0.15224728 -3.8088233 8
0.020859122 0.37890044 -3.8069735 8
-3.0491135 0.45085049 -3.8085113 10
-0.020148516 0.4682627 -3.8086901 8
0.97674018 0.49747425 -3.8033783 9
1.3715138 0.71809125 -3.8035905 9.1690006
1.4304338 0.75265038 -3.8083041 10.1755
0.13795084 1.2066568 -3.8082929 12.5
-3.0494123 1.2924597 -3.8090701 14
-0.090545595 1.3023118 -3.8015323 12.5
-1.0662048 1.3545651 -3.8017161 14
0.11912513 1.4022624 -3.8044944 14
-2.0211549 1.4981031 -3.8056302 13
-8.4534082 1.500946 -3.8067524 12.529
-2.1361465 1.6023507 -3.8039758 14.011
-7.8659267 1.6120162 -3.8008335 13.028
1.709764 1.6134455 -3.8084121 13.5
-8.5812578 1.7109452 -3.8029828 13.0325
-8.8292313 1.7269033 -3.800025 13.031
2.1227043 1.7568278 -3.8059812 14
-2.040307 0.092911579 -3.7900057 8
-1.0455773 0.14834899 -3.7991893 8
-2.0779436 0.38202977 -3.7950826 9.666667
0.18210846 0.56721842 -3.7979653 8.5
-8.1944351 0.5892325 -3.7986758 10
1.0265236 0.64779246 -3.7945757 8.8383331
-0.053506374 0.69200575 -3.7965274 9.5
-2.0564404 0.7698099 -3.7925739 12
-1.0462636 0.83997583 -3.7921915 12
-1.1635849 0.84019721 -3.7961898 12
-0.073953569 0.91746449 -3.7956958 11
-1.0974467 1.0261632 -3.7900517 12.5
2.1574569 1.2621062 -3.7983952 12
-2.0335135 1.2893353 -3.7936468 13
-0.044083297 1.310688 -3.7908351 13
-1.10694 1.3273125 -3.7915215 13.5
-0.2705124 1.4287988 -3.7948842 14
1.6952263 1.4963845 -3.7986548 13.66625
-0.11013949 1.5345362 -3.7969098 14
2.1296473 1.5873842 -3.7905283 13
-8.4838009 1.6804188 -3.7907448 13.0305
2.0458803 1.7418596 -3.795321 14
0.011393249 1.7604563 -3.7919047 14
7.7944155 3.1867936 -3.7902148 14.144
-1.0012819 0.11205901 -3.7839165 8.0074997
-2.9255753 0.48264962 -3.7859542 9
-1.9435939 0.55477142 -3.7818332 9.5
-1.1309242 0.58236063 -3.7803597 11
-8.9460421 0.61681175 -3.7858136 10
1.1187464 0.61976683 -3.7881112 8.6752501
0.20469254 0.72918904 -3.7877684 12.1785
-1.0909237 0.74327177 -3.7862072 11.5
-1.0902618 0.90188998 -3.7815394 12
-1.0258359 0.90073347 -3.7823482 12
-1.1583301 0.91656274 -3.785691 12
-0.26495585 0.93504518 -3.7898142 12
-0.2375482 1.042969 -3.785548 12.5
-1.0296456 1.0618747 -3.7817054 13
0.14439827 1.0980917 -3.7807453 12
-1.1436442 1.1340737 -3.7878435 13
-1.1169336 1.1460319 -3.7836299 13.5
-1.0803246 1.1447225 -3.78297 13.5
-1.0446135 1.1441733 -3.7856197 13.5
-1.1528767 1.2284275 -3.7848754 13
2.019664 1.3509904 -3.783133 12
-0.088712752 1.3871764 -3.782016 14
1.9565125 1.6152329 -3.7817726 13.333333
-3.1731596 1.6666634 -3.7832987 14.015249
-2.5209198 1.7590191 -3.7812879 14.0125
-0.13874936 1.7510631 -3.7815592 14
-0.042417526 1.7570764 -3.7884963 14
-9.4408388 1.8367842 -3.7851944 13
-1.0794566 0.067232624 -3.7772026 8
-1.0854732 0.11017305 -3.7778978 8
-1.0524547 0.18910587 -3.7758293 8.5
-1.0143359 0.18973002 -3.7768941 8.5
-1.1415261 0.26362956 -3.7710724 9
-1.0727606 0.50294846 -3.7717123 10.5
-1.0251784 0.50293905 -3.771069 10.5
0.24616408 0.50771743 -3.7725127 8
0.2586914 0.50858796 -3.7733061 8
0.2900199 0.51067972 -3.7720237 8.1774998
0.52578223 0.52706802 -3.7745483 8.1756668
-1.0167161 0.58148527 -3.7767153 11
-2.0910912 0.60220432 -3.7724941 11.5145
-1.1543041 0.64548302 -3.7764745 11
-1.0157331 0.74166954 -3.775291 12.0075
-2.0084324 0.8660695 -3.7778001 11
0.79497951 0.89352393 -3.773407 12
-1.1363727 0.90117586 -3.7713389 12
-1.0411435 0.90043443 -3.7788887 12
0.75115323 0.9795987 -3.7798712 12
-1.9906901 1.0715854 -3.7757096 12
0.78826237 1.0900052 -3.7744429 12.5
-0.10813993 1.30462 -3.7724564 13
0.064231098 1.3146859 -3.7790115 13
1.9604942 1.5601759 -3.7711401 13.169499
-1.0384438 0.076170519 -3.7681794 8
-0.36882982 0.12545745 -3.7680597 8.0035
0.44893977 0.14506778 -3.7661891 8.1781664
0.71236897 0.15192023 -3.7686701 8.1765003
-1.0793177 0.17000832 -3.7645597 8.5
-1.0654436 0.2703847 -3.7612624 9.5
-1.1043189 0.34512764 -3.7651811 9.5
-8.5057459 0.35381132 -3.7647958 9.0325003
-1.0683078 0.45582545 -3.7654469 10
-8.4841766 0.60080838 -3.7669723 10.029
-0.99728221 0.6458171 -3.7638159 11
-8.5114813 0.68882966 -3.7679844 10.0325
-1.0841199 0.683869 -3.7670507 12
-1.0940256 0.70034117 -3.7630174 11
-8.4149618 0.95427912 -3.7663972 11.029
0.016838402 1.0895234 -3.7690413 12
-2.1268997 1.1421885 -3.7685044 13
-2.1356156 1.322566 -3.7605071 13.333333
-2.9943185 1.3531445 -3.7622876 13
-6.588769 1.4663198 -3.7671287 13.0255
2.6592517 1.6690111 -3.7620969 13.165501
-1.1520225 0.073409304 -3.7523942 8
-0.56359285 0.07793802 -3.7515047 8.0039997
-2.629693 0.13041738 -3.7528896 8.3508329
-1.0838885 0.13467512 -3.7590325 8.5
-1.9243056 0.24585921 -3.7551947 8
-0.97679919 0.26905924 -3.7516108 9.0065002
-1.1114156 0.2731888 -3.7577927 9
-0.30357826 0.28377119 -3.7551866 9
-0.50229293 0.29054177 -3.7530501 9
1.3169786 0.302701 -3.7501185 8
-1.0738263 0.40612847 -3.7533433 10.5
-1.0866743 0.41644442 -3.7557476 9.666667
-2.3803029 0.42094839 -3.7534013 8.5
0.19171265 0.44465941 -3.7501633 9
-1.0786173 0.4740063 -3.7519033 11
-1.1174232 0.48706222 -3.7542903 10
-0.27980697 0.65857476 -3.757515 11
-1.1677314 0.69845414 -3.7513068 11
-0.27721843 0.7189616 -3.7529089 11
-0.23516795 0.7204771 -3.7551734 11
-1.0828536 0.82256609 -3.7591093 12.5
0.16056964 0.87750149 -3.7566311 11
0.76334935 0.88968557 -3.7561326 12
-2.1258368 0.91647905 -3.7562034 12
-0.070334792 1.0834469 -3.7579854 12
-0.3253482 1.2364395 -3.7573295 13.003
1.6879039 1.3583205 -3.7526617 12
1.6703215 1.5952435 -3.753293 13.5
-3.0552797 1.6564467 -3.755661 14
-9.457757 1.8089862 -3.7507281 13.032
2.6426511 1.8387877 -3.7554493 14.165501
-0.52622157 0.079263121 -3.7472951 8
-0.48361865 0.080854982 -3.7424181 8
-0.25993583 0.29833439 -3.7422063 9
-0.22477311 0.40500712 -3.7430699 9.5
-0.18671337 0.50892204 -3.7443309 10.5
0.033619672 0.52173257 -3.7462747 9.3999996
-2.9325218 0.73854518 -3.7469416 10.5
0.020843446 0.8683604 -3.7445681 11
-1.0908806 0.89142454 -3.7498715 13
-0.25207689 0.92352021 -3.742429 13.5
-8.8755894 0.98248208 -3.7434962 11
-2.9530621 0.99729633 -3.7472382 12
-0.21965532 0.99095035 -3.7431419 14
-1.0888658 1.0313559 -3.7456517 14
-2.4678864 1.0458697 -3.7496386 12
0.73650873 1.191591 -3.7496345 13
0.13488431 1.2183366 -3.7474093 14
-3.0236053 1.2578007 -3.7489176 13
-2.4761705 1.2659032 -3.7499888 13.5125
0.74605292 1.2736551 -3.7473135 13
-8.8360157 1.3524249 -3.742213 12.02975
0.75746244 1.4692609 -3.7494011 14
-2.9915676 1.5267457 -3.7454865 14
2.0531597 1.566417 -3.7413957 13.830333
-1.1441375 0.059957206 -3.7323 8
-1.095506 0.061476201 -3.7324593 8
-0.68129134 0.087560892 -3.7305899 8.0050001
-0.25188911 0.088777691 -3.7374723 8
-0.39297837 0.095866635 -3.7302814 8.0035
-2.0966167 0.1151311 -3.7331705 8.333333
-0.25710478 0.12894079 -3.7392302 8.5
0.82236123 0.15470544 -3.7382336 8
0.4409703 0.1682854 -3.7330089 8.3391256
0.20693439 0.17459947 -3.7379186 8.3336668
0.15272774 0.19325896 -3.7351785 9
0.1639418 0.22664282 -3.731127 8
1.0026715 0.28179845 -3.7380612 8
-0.46983913 0.29156932 -3.7398274 9
-2.6669002 0.32499421 -3.7322516 8.0167503
0.17143451 0.32334781 -3.7302811 10
-2.4264359 0.41103962 -3.7366524 8.5
-0.25269699 0.45453495 -3.7370756 11
-0.29062796 0.47094226 -3.7396555 10
0.15543388 0.48456317 -3.7355099 10
-2.1110053 0.7115581 -3.7397652 11.333333
-0.24705791 0.71870399 -3.7310536 12
-0.21855459 0.7857722 -3.7317731 12.5
-2.1373544 0.94957149 -3.7323446 11.5
-2.9963222 1.0591015 -3.7317863 12
-6.5261512 1.1335747 -3.7310452 12.027
0.77174878 1.1657476 -3.7307763 13.5
2.1123688 1.3361992 -3.7392073 12
-2.0876741 1.3898081 -3.7339239 13
2.1124859 1.3834589 -3.7370911 12.333333
-6.5308862 1.4312431 -3.7365642 13.027
2.1165457 1.4799099 -3.7385261 13
2.1278958 1.5777212 -3.7371278 13.666667
-9.1437702 1.7643018 -3.7374551 13.030251
-0.21143919 0.12867616 -3.7271357 8.5
0.16665158 0.13803893 -3.7281156 8
0.80974895 0.13277185 -3.7254004 8
-3.1569686 0.16851349 -3.7298539 8.5
0.16554272 0.19299814 -3.7296331 9
-0.051639259 0.21298744 -3.7219617 8
0.076186746 0.221249 -3.7209976 8
1.2006609 0.29546508 -3.7265947 8
-0.26363549 0.32334778 -3.7249358 10
0.15170713 0.32291201 -3.7261579 10
-0.21002804 0.38844979 -3.7237902 10.333333
-2.08284 0.45023012 -3.7211852 10.012
-2.9728122 0.48195928 -3.7204428 9
-3.1558039 0.50877225 -3.7232721 10.5
0.14968444 0.58363885 -3.7244546 11
-2.9631357 0.67425984 -3.7237325 10
0.76634461 0.69619793 -3.7259588 11
-3.1514709 0.76599669 -3.7255826 12
0.79522336 0.76251829 -3.7205899 11
-3.1014864 0.81971639 -3.7265029 12
-2.9774361 0.8649298 -3.7243876 11
-0.18999006 0.98675823 -3.7292013 14.0015
-2.0427756 1.0347203 -3.7255969 12
-0.1930899 1.0976312 -3.7268696 13.333333
-3.1527951 1.1155362 -3.7214596 13
-3.1508427 1.2920299 -3.7224698 14
-0.19394632 1.350242 -3.7214966 13.666667
0.78996414 1.3684521 -3.7204762 13.5
-2.0999973 0.031922758 -3.7153385 8
-2.017704 0.092124641 -3.7147882 8.0109997
-2.0749657 0.15076508 -3.7176242 8.5120001
0.79860419 0.19664946 -3.7183704 9
0.7817834 0.31969088 -3.7193341 9
0.81536305 0.44550446 -3.7113898 9.5
-2.3822117 0.49901065 -3.7159035 9
0.7834698 0.55021691 -3.7111247 10
-2.4411473 0.68100309 -3.7163434 10
-2.4149046 0.68107617 -3.7104454 10
0.13556437 0.713938 -3.7121885 12
-3.0134988 0.90961885 -3.7194593 11.5
-8.8114777 0.97940594 -3.7164032 11.02975
0.14741349 0.98288858 -3.7164574 14
0.77873808 1.0022368 -3.7109659 14
1.8188845 1.3344868 -3.7132885 12.333333
-3.158381 1.54546 -3.7120457 14.01675
1.734275 1.5501341 -3.7103074 14
1.7889014 1.5601124 -3.7135844 14
2.1106229 1.6176698 -3.7159603 14
-3.8869643 1.7218323 -3.7165272 14.018
-3.0914085 0.077402174 -3.7009735 8
0.78165841 0.12625478 -3.7084305 8
0.81392741 0.12744106 -3.708431 8
0.81590408 0.19612783 -3.7043796 9
-2.9717913 0.29093403 -3.7042665 8
0.77154815 0.3371599 -3.7076504 9
-2.962079 0.39329851 -3.7084279 8.5
-2.1072869 0.4266963 -3.707252 8.5
-3.0819707 0.44641715 -3.7093039 10
0.76704299 0.45940277 -3.7067072 11
-0.18963887 0.47195542 -3.7031507 10
0.76436949 0.72632951 -3.7003007 12
-2.0728407 0.74406028 -3.7059321 10.333333
0.75071049 0.75937974 -3.7090824 11
-2.0062046 0.81267345 -3.7031024 11.0135
0.77204078 0.86419046 -3.7079606 13
0.81083536 1.0020218 -3.7032211 14
1.7391723 1.2758709 -3.706192 12
-3.0398984 1.3473252 -3.7018235 13
-3.2066739 1.3979826 -3.7023001 14
-3.1802325 1.3959004 -3.7092495 14
2.0002947 1.4690837 -3.7033112 13
-3.0555906 1.5267888 -3.7069848 14
-2.1177115 1.5629121 -3.7032151 14
-3.0906773 0.26103354 -3.6940351 9
-2.5811472 0.31285152 -3.6916761 8.0174999
-2.105845 0.36168128 -3.694453 9.5
0.80463445 0.41009367 -3.6982522 10.5
0.77060157 0.50711197 -3.6986809 10
0.81676275 0.50879937 -3.6907115 10
-2.0858111 0.51568723 -3.696353 11
-8.8532457 0.61480069 -3.6945536 10.02975
-2.1271451 0.69031996 -3.69891 11
0.80300629 0.79525173 -3.6973555 12.5
-0.16145623 0.88519716 -3.6948271 12
-3.1229432 1.0052642 -3.6902113 13
-3.8741181 1.2159536 -3.6955283 13
1.9934881 1.2406552 -3.6930521 12
-2.0361795 1.2699492 -3.6967313 13.0135
-3.143743 1.2922353 -3.6917839 13.5
1.8243588 1.4484322 -3.6965058 13
-2.1631322 1.5807099 -3.695751 14
-9.4521923 1.8063518 -3.6972976 13
0.73402286 0.22846305 -3.6827836 8.6762505
1.0263592 0.28477073 -3.6877367 8
-2.9977927 0.38495272 -3.6870942 8.5
-2.9852052 0.70560122 -3.6883948 10.333333
-3.1479421 0.72507602 -3.6852436 11.5
0.81257004 0.78953904 -3.6849217 11.5
-3.2442715 0.82526505 -3.6871848 12
-3.0298438 0.95863497 -3.6828275 11.5
-0.18321945 0.95935547 -3.6817126 12.5
-3.2381046 1.2067443 -3.6863346 13
1.8113581 1.2208074 -3.6827533 12
-2.152983 1.4444364 -3.685379 14
-3.0711918 1.5466235 -3.6862421 13.5
-2.3449655 1.588167 -3.6847789 14
-3.5903425 1.6869662 -3.6874049 14.017001
-3.8424847 1.7095187 -3.6850426 14
-3.1552417 0.16893418 -3.676353 8.5
0.83011895 0.22799374 -3.6732593 8.5
-2.0939887 0.31770286 -3.6742959 9.666667
-1.9724354 0.43909109 -3.670218 8.5135002
-3.1542435 0.44665891 -3.6762877 10
-2.424087 0.49988392 -3.678297 9
-3.221925 0.63450289 -3.6769085 11
-3.0065608 0.67125428 -3.6790705 10
-0.1460209 0.74852562 -3.6770005 11.5
-3.8611133 0.96567601 -3.6772668 12
-2.153424 0.97482461 -3.6761136 13.015166
-0.16756399 1.1898924 -3.6764965 14
-2.1206529 1.2681688 -3.6718302 14
-2.0787864 1.3449501 -3.6722937 13.5
-2.4419923 1.4007058 -3.6796231 13
1.6812664 1.4301686 -3.6775868 13
-2.4245336 1.5914512 -3.6787169 14
-2.1044869 0.03364712 -3.6651475 8
-0.22185449 0.10146054 -3.6664658 8
-0.16602929 0.12998503 -3.6691909 8
-2.1961746 0.1471844 -3.6625168 8.5
-3.6701868 0.17906767 -3.6695154 8.5225
-3.479301 0.1743589 -3.6651592 8.5217495
-0.16165771 0.19505048 -3.669909 8.5
-3.1163933 0.24907194 -3.6605279 9
-3.3432541 0.25689617 -3.6601672 9
-2.9077802 0.31037551 -3.6627271 8
-0.17631455 0.3533569 -3.6690645 9.5
-2.2499437 0.42499328 -3.6611047 8.5149994
-0.1865536 0.57675326 -3.6660552 11
0.75708902 0.60916281 -3.6673646 11.176
-2.2694917 0.73099577 -3.6652851 10.5
-2.1047153 0.75548524 -3.6602345 12
-3.8803399 0.84445888 -3.6689684 11.518
-2.0997851 0.8635357 -3.6677625 12.333333
-2.1541338 1.1292084 -3.6632264 13
-2.3889301 1.1370879 -3.6698883 13
-2.2710671 1.133033 -3.6667712 13
-2.1403215 1.2379308 -3.6637421 13
-2.3221915 1.2855065 -3.6620359 14
-2.3807185 1.2918301 -3.6636858 14
-2.2826681 1.4505359 -3.6632824 14
-0.14921927 1.5584495 -3.6612542 14
-3.3398991 0.084920876 -3.6577747 8
-3.1322803 0.082501978 -3.6545699 8
0.73702341 0.22487487 -3.6579003 8.6774998
-2.0930102 0.25717723 -3.6588359 9
0.74520028 0.32334778 -3.6590679 10
-3.3424933 0.43011358 -3.6580524 10
-2.2018704 0.44444489 -3.6567483 10.5
-2.0959516 0.50530851 -3.6535506 10.5
-3.47452 0.52567559 -3.6566122 10.521749
-3.6631615 0.53966415 -3.6586587 10.5225
-3.8449657 0.59688151 -3.6564429 10.5
-3.3885386 0.64305991 -3.6588407 11.02025
-2.1759536 0.7580381 -3.6542273 12
-2.3005247 0.76455671 -3.6581702 12
-2.1287646 0.83656168 -3.6558933 12
-2.2660184 0.84122992 -3.6528964 12
-2.0674973 0.85306978 -3.6565495 11
-2.2373574 0.90813535 -3.6506093 12
-2.192275 0.90767413 -3.6538146 12
0.82633424 0.91841596 -3.6558509 12
1.7234815 0.98854065 -3.6569245 11
1.7558914 0.99117327 -3.652467 11
-2.1902163 1.0139407 -3.65516 13
-2.2011766 1.0522835 -3.6560204 13.5
-2.3132319 1.1088859 -3.651619 13
-3.1173751 1.2718217 -3.6526301 14
-2.1890273 1.2714245 -3.6573215 14
-3.2733958 1.2989092 -3.6509278 14
-3.2958646 1.3027788 -3.6500692 14.021
0.079789907 1.4083729 -3.6549869 14
-2.2075651 1.7217504 -3.6571376 14.0115
-9.4577446 1.8047886 -3.657474 13
-2.3280761 0.088741153 -3.6467009 8
-2.0991988 0.092383802 -3.6405735 8
-2.2910626 0.17308378 -3.6478252 8.5
-2.1676531 0.17407231 -3.6488118 8.5
-2.3026552 0.24441642 -3.6457438 9
-2.1114724 0.24650523 -3.6465106 9
-3.1093144 0.49954653 -3.6496308 10.5
-2.2987649 0.50953758 -3.6472678 10.5
-2.1727862 0.50653386 -3.6479564 10.5
-2.0240636 0.5140034 -3.6454473 9
-2.0019269 0.58476293 -3.6439548 9.5
-3.3350403 0.60117877 -3.6473367 11
0.8264879 0.60879129 -3.6448803 11
-2.054657 0.70741004 -3.6446416 10.333333
-3.1331093 0.75474578 -3.6490879 12
-2.3607733 0.76609683 -3.6455698 12
-2.1983862 0.76924485 -3.6470063 12
-2.0036407 0.80616587 -3.6407845 11
-3.8570836 0.83287686 -3.6400311 12
0.099844709 0.84493971 -3.6413612 12
-2.0818663 1.0334588 -3.6469707 12
-3.1085017 1.0949782 -3.6435206 13
-2.0716853 1.1985383 -3.6467061 13
0.086273685 1.218196 -3.6438155 13
-2.2820804 1.2453473 -3.6446624 13
-2.1773379 1.247485 -3.6448748 13.0115
-0.14094669 1.3445935 -3.6463392 13
0.070054665 1.3522635 -3.642628 13
-2.1035197 0.051539123 -3.6366668 8
-2.3271351 0.22351271 -3.6373022 9
-2.225225 0.3496511 -3.6347435 8
-2.0242295 0.34455222 -3.6317201 8
-1.9565023 0.36560228 -3.6386917 8
0.83729184 0.38161689 -3.6380949 9.5
-2.027441 0.41060895 -3.6346054 8.333333
-2.304219 0.44305092 -3.6398983 10
-2.1116412 0.44246727 -3.6359396 10
-2.1360593 0.50493991 -3.6354623 9
-0.2156224 0.50726604 -3.6365554 10
-2.2656095 0.63957536 -3.6378675 11
-2.1392934 0.63783932 -3.6396999 11
-2.0342512 0.76793277 -3.633718 10.5
-2.0961018 0.80614471 -3.6355026 11.01425
-2.3608527 0.93750328 -3.6396923 13
-2.0489035 1.1831912 -3.6389222 12.5
-2.1623549 1.266609 -3.6314273 13.014417
-3.3759372 1.3136319 -3.6303296 13.52025
-2.062613 1.4116391 -3.6340566 14
-0.092614651 1.5555227 -3.637203 14
-2.1827111 1.6846106 -3.6338239 14
-3.0523875 1.7599787 -3.6309593 14.01475
-2.3128948 0.046736643 -3.6282949 8
-2.372782 0.07420858 -3.6258655 8
-2.2862837 0.11329519 -3.6218033 8.333333
0.8669349 0.2312908 -3.6226139 8.5
-2.1789007 0.36648989 -3.6230347 10.0155
-1.9422222 0.44871321 -3.6268616 9
-2.1710567 0.46911785 -3.6222289 10
-3.8494744 0.47591734 -3.6257684 10.018
-2.201874 0.68624181 -3.6281998 11
-2.1764131 0.68566012 -3.6210821 11
-3.8661618 0.8320955 -3.6231704 12
-1.9676965 0.85219979 -3.6252851 11
0.086721823 0.93073839 -3.6256344 12
-2.1957173 1.112184 -3.6285625 12
-2.1169076 1.1105866 -3.6253431 14
0.85556614 1.1215185 -3.6226535 13.333333
-3.8459005 1.2095298 -3.6269386 13
-2.1986713 1.2666601 -3.6258848 13
-2.3202753 1.4325211 -3.623529 14
-2.0303855 1.4683473 -3.6280599 13
-2.1646705 1.4720793 -3.6207542 13
-2.1036468 1.5457789 -3.6286492 14
0.8441757 1.6077297 -3.620434 14
-2.1251521 1.6800444 -3.626977 14
0.69857401 0.19039007 -3.6165361 9.1745005
-0.070973888 0.20571965 -3.6109481 8.5
-2.3353026 0.25608718 -3.6186724 9
-2.1420217 0.25126791 -3.6181262 9
0.82910764 0.25660649 -3.6149468 9.6735001
0.1200178 0.29454741 -3.6185098 9
-2.242496 0.3319115 -3.6198931 8
-2.3865938 0.44758797 -3.6150265 10
-2.2610638 0.44369864 -3.6168995 10
-2.1472263 0.46919024 -3.619725 10
0.051425993 0.47521454 -3.6188507 10
-2.3389263 0.50830239 -3.6155119 10.5
0.871099 0.53265148 -3.6147861 10.5
0.094798699 0.72261763 -3.6134765 11
-2.2753081 0.95831084 -3.6118531 12
-2.1412296 1.055088 -3.6175098 12
-1.9999007 1.0549066 -3.6190195 12
-2.3752916 1.1454135 -3.618665 14
-3.8317451 1.3000102 -3.6128633 13.5
2.702343 1.310704 -3.6119905 12.165
-0.17642334 1.3383887 -3.6186955 13
0.03830424 1.345938 -3.6143558 13
-8.9245882 1.3545704 -3.6197517 12
-2.2649488 1.3772507 -3.6105914 13
-0.11993273 1.3910493 -3.6110153 14
-3.8653409 1.4033896 -3.618602 14
-3.0546389 1.5094806 -3.6155694 14
-2.269115 1.5556494 -3.6145039 14
1.0270199 1.6216693 -3.6122148 14
-2.0968084 0.071357727 -3.602453 8
-2.0960608 0.54346812 -3.6095285 9.5
-2.0364189 0.64759767 -3.6054049 10
-2.2353454 0.65217769 -3.6040318 10
-0.11625943 0.71455383 -3.6098058 11
-2.3196757 0.74323386 -3.6015148 11.5
-0.17286818 0.83113623 -3.6014552 12
-2.3473184 0.84673101 -3.6041532 12
-2.3670883 0.90813446 -3.608222 12.5
-0.17031106 0.91882771 -3.603997 12
-0.13959551 0.91962022 -3.6014245 12
0.0037719011 0.92501599 -3.6019552 12
-2.2797375 0.96637285 -3.6059232 11.666667
-8.8980436 0.98186398 -3.6036212 11
-2.1760058 1.0534098 -3.6013241 12
-0.080486342 1.2044075 -3.6033678 13
-2.376627 1.2543863 -3.6032686 13
0.80020249 1.3890224 -3.6098607 13
0.032904714 1.3954977 -3.6067686 14
-2.3717539 1.4594151 -3.6077724 14
-3.0751925 1.5106416 -3.6050436 14.01875
-2.3581629 1.5612229 -3.606214 14
1.3200976 1.6484828 -3.6087477 14
1.6150551 1.6797059 -3.6070287 14
-9.4448919 1.826598 -3.6093545 13
-2.1623814 0.071876064 -3.5984049 8.0155001
-2.245626 0.14706478 -3.5975451 8.5
-2.3545313 0.37259081 -3.5952315 10
-3.0603828 0.38605541 -3.5908768 8.5190001
-2.1340346 0.43892631 -3.5956154 9
-2.3581674 0.52268481 -3.5980434 11
-2.2569189 0.67693454 -3.5997005 10
-2.2493935 0.80251867 -3.5939026 11
-0.024880663 0.87044525 -3.5937228 12
0.8181541 0.96471483 -3.5954163 12
0.84923017 0.96631509 -3.5926116 12
-2.3908274 1.0499676 -3.5951729 13
-0.06211403 1.0950807 -3.5901694 13.5
0.02632001 1.1734596 -3.5928936 14
-0.18566255 1.2003796 -3.5993781 13
0.039377019 1.2072819 -3.596458 13
-2.2860441 1.2673521 -3.5958915 13
0.83001912 1.3894517 -3.5997717 13
1.0246688 1.4045365 -3.5992634 13
-2.2239761 1.470711 -3.5995545 13
1.7890247 1.6969554 -3.5932524 14
-3.0415516 1.7354479 -3.5953693 14.0165
-2.0679221 0.23945406 -3.5822797 8
-0.13464408 0.28605637 -3.5835834 9
0.067474231 0.28134787 -3.5859814 9
-2.255609 0.41708279 -3.5847273 8.5
-2.9900246 0.47301736 -3.5831137 9
-0.14815928 0.64714587 -3.5803981 11
0.048207596 0.74515468 -3.5843973 11.5
-3.2603312 0.76099628 -3.5894485 12
0.91382432 0.80987245 -3.5840011 12
-2.3016577 0.93548048 -3.5846491 11.5
0.069307812 0.94607365 -3.5827665 12.5
1.0487862 0.97856987 -3.5865786 12
-3.2541749 1.1062087 -3.5801575 13
1.2950232 1.1386967 -3.5886705 12.666667
0.84652877 1.3447554 -3.5848379 13.5
4.7078152 1.3621492 -3.5831034 12.162
-2.3331418 1.3773953 -3.58775 13
1.0041515 1.3761839 -3.5824947 13.6
2.6897383 1.6052963 -3.5869057 13.4925
0.070345297 0.11208675 -3.5752659 8
0.84580743 0.13330668 -3.5791156 8
0.03408365 0.23118854 -3.578454 8.666667
-2.0176554 0.24282596 -3.5782442 8
-3.1132469 0.38333303 -3.5721214 8.5
-0.098682284 0.40664783 -3.5771558 9.5
0.84017241 0.44448656 -3.5713546 9.5
-0.14093535 0.46703565 -3.5776172 10
-0.056928247 0.47285748 -3.5733409 10.333333
0.10262285 0.51643014 -3.5739601 10
-0.14897084 0.5594182 -3.5712748 11
0.012324125 0.57178229 -3.5757875 11
0.079839885 0.57297462 -3.5705185 11
0.0857815 0.65393567 -3.5712919 11
-0.15198714 0.71080858 -3.5743339 11
-2.9994564 0.72580218 -3.5728202 10.5
0.82416403 0.75400907 -3.5709846 11
0.84587079 0.87303001 -3.5752416 12
-3.0182905 0.98029721 -3.5716698 12
1.1577152 1.0824437 -3.5756264 13
-3.8668196 1.3314196 -3.5701311 13.666667
4.5314879 1.3378239 -3.5742452 12.1625
1.3070735 1.3825699 -3.5734148 13.5
0.0369526 0.10498956 -3.5615714 8
-2.3491101 0.24619567 -3.5629344 9
-0.14681773 0.3087492 -3.5643556 10
-0.11450052 0.30343688 -3.5680473 9
0.09035559 0.31067324 -3.5681665 9
0.070583463 0.41240296 -3.5633676 9.5
-0.11166559 0.42124605 -3.5658784 10.5
0.062858507 0.42685646 -3.5685334 10
-3.0866284 0.47325483 -3.5609879 9.0200005
-0.11181781 0.68438917 -3.5607622 12
0.062340721 0.71834981 -3.5698903 11
-3.1106467 0.72555804 -3.562921 10.5
-0.12907916 0.74870652 -3.5621676 12.5
-3.2595091 0.75787103 -3.5634701 12
0.85390937 0.75495529 -3.5608222 11
1.0540272 0.7664535 -3.5601141 11
1.0259615 0.7898348 -3.5618296 11.5
-3.2551816 0.81446016 -3.560379 12.02
-3.8667386 0.82545441 -3.5608649 12
-3.1543927 0.89816642 -3.5605426 11.5
-3.0515375 0.91331023 -3.5672414 11.619
1.1383433 0.92456377 -3.5634098 12
1.1690445 1.1456513 -3.563262 13.4
-3.0391717 1.325334 -3.5663791 13
4.866538 1.3826201 -3.5649269 12.1615
1.5345254 1.4375569 -3.5688534 13.666667
-3.1957641 1.5164995 -3.5611818 14
-3.1667233 1.5133455 -3.563329 14
1.6324357 1.512791 -3.5653729 14
1.9903518 1.5583115 -3.5695148 14
-3.3695147 1.7703103 -3.5662448 14.016
-0.14749348 0.098733351 -3.5593946 8
-0.042802393 0.10234334 -3.5587842 8
-0.1392836 0.12262767 -3.5542014 8.5
-0.12028956 0.12275808 -3.5572655 8.5
0.90904486 0.15736164 -3.5567532 8
0.86667681 0.32066512 -3.5569596 9
1.4486369 0.32616073 -3.5521579 9
0.87467539 0.34181309 -3.5589683 9
1.368372 0.34178221 -3.5508571 9
-3.4249916 0.3691349 -3.5506234 8.5
-3.3433394 0.37274289 -3.5557144 8.5202503
-3.0273724 0.38131762 -3.5511642 8.5
-0.0047906712 0.43141267 -3.557127 11
0.88447797 0.54990482 -3.5523489 10
0.87086916 0.57230985 -3.5505462 11
-8.9063511 0.61628354 -3.5581701 10
-3.4304614 0.63813746 -3.5507882 10
-3.0267463 0.66381443 -3.5504627 10
0.85073 0.68661332 -3.5592546 11
0.82456297 0.70059341 -3.5514257 12
1.3521155 0.7845071 -3.5548584 11
1.5588812 0.79824024 -3.5540898 11
1.3279014 0.80860329 -3.5557356 11.5
-0.10022872 0.87586474 -3.5578318 13.5
1.5401063 0.90387052 -3.5546927 12
1.5879334 0.92272228 -3.5564566 12
-0.13167588 0.94075251 -3.5591238 14
-3.2534935 1.1017165 -3.5544019 13
1.5118935 1.1946967 -3.5561008 13.5
-3.4447582 1.311808 -3.5571368 14.022
-3.151638 1.334406 -3.5560877 13
2.2038417 1.3800217 -3.5503139 13
-3.2775369 1.5419548 -3.5506768 13.5205
2.3056989 1.5999302 -3.5589972 14
2.4796486 1.6249031 -3.5550427 14
-3.8498437 1.8047998 -3.5559208 14
0.8856622 0.12558617 -3.5411377 8.5
1.4557564 0.17297389 -3.5448499 8
1.4709294 0.25010246 -3.5469031 8.5
-3.4306827 0.27930805 -3.5481164 8
-3.0583854 0.28556919 -3.5424914 8
0.87000984 0.31572169 -3.5417025 10
1.2909819 0.33835053 -3.5498676 9
1.2747432 0.35977197 -3.5415852 9
1.2963064 0.36077639 -3.5414307 9
1.325026 0.36212298 -3.5492303 9.1750002
-3.4693131 0.45696715 -3.5486498 9
1.0588663 0.45414671 -3.5454295 9.5
-3.0740261 0.47346076 -3.5462594 9
0.85698152 0.50355172 -3.5464029 10
1.034062 0.51220864 -3.5482602 10
1.1519369 0.54087967 -3.546124 10.5
-3.4766693 0.6375491 -3.5430803 10
-3.0578499 0.66310972 -3.5428505 10
1.5577739 0.79202759 -3.5459347 11.333333
-3.2299304 0.8533541 -3.5474577 11.0205
-3.1142139 0.9474982 -3.5435972 11.5
1.001767 0.97270632 -3.5407262 14
-3.125402 1.0436231 -3.5465288 12
-3.8638453 1.1994222 -3.543257 13
2.3725293 1.3908695 -3.5404654 14
2.2044103 1.4814509 -3.5496392 13.5
-3.151566 1.5296041 -3.545105 13.5
-3.1763525 1.6296742 -3.5458689 14
2.5673347 1.6371688 -3.5493493 14
0.62004018 0.06136534 -3.5351756 8.1750002
0.92925781 0.12599042 -3.5380383 8.5
1.4653095 0.13167435 -3.5389898 8.5
1.5865674 0.14684327 -3.5369811 8.6000004
1.36652 0.42925787 -3.5302205 10.666667
1.0102228 0.44226551 -3.5390019 10.5
1.3351136 0.52700472 -3.5343585 10
1.5412949 0.54632121 -3.5311713 10.4
1.6195588 0.54280943 -3.5300288 10
1.1987088 0.5657059 -3.5387466 10
1.6174111 0.6447345 -3.539257 11
1.6783032 0.64937794 -3.5309076 11.17
1.0017571 0.7731142 -3.5385754 12.5
-3.4529619 0.81585622 -3.533514 11
-3.4299169 0.81562698 -3.5373037 11
-3.1167836 0.85130274 -3.5365167 11
2.302547 0.86543524 -3.5386429 12
2.3790634 0.87275672 -3.5332856 12
0.8559444 0.89609396 -3.5383933 13.5
2.5706954 0.89254045 -3.5300674 12
1.3839574 1.0025234 -3.5301898 14
-7.4743576 1.1842132 -3.5309765 12
2.3683648 1.2157315 -3.536006 13
2.6176496 1.2507948 -3.5318775 13
-3.8123686 1.2787261 -3.5325944 13
1.6028501 1.3084091 -3.5367179 13
-3.0947437 1.3271098 -3.5393603 13.019168
2.3979361 1.3946024 -3.5398488 14
2.6111362 1.4281747 -3.5331745 14
-3.1538038 1.4308379 -3.5359225 13
1.8161374 1.536276 -3.5341425 14.1715
1.6956213 0.066951863 -3.5261328 8
1.0264581 0.23588917 -3.5277405 8.5
1.6192538 0.38118276 -3.5222967 10.333333
1.7779611 0.55207348 -3.5288825 10
2.2814546 0.61157435 -3.5234566 10.5
1.6880219 0.73614544 -3.5293231 11
2.3244669 0.7431044 -3.5224333 11.416375
1.3664478 0.8187986 -3.5294564 12.666667
2.6089499 0.89636636 -3.5272512 12
2.576422 1.1561806 -3.5299225 13
2.4257114 1.224383 -3.5290937 13.165751
2.5707581 1.420109 -3.5267658 14
-6.9548779 1.4906025 -3.5253947 13.0255
1.7127285 1.5218471 -3.5255742 14.172
-3.8562882 1.7994585 -3.5212929 14
2.6476283 1.9842793 -3.5254819 14.1695
0.24791293 0.060291231 -3.5176499 8.1780005
1.7255819 0.27053657 -3.5121179 9.5
1.7640603 0.4776572 -3.516355 11
2.2900429 0.50929821 -3.5112772 11
2.3124547 0.61356062 -3.5198102 10.5
2.3212795 0.73561883 -3.5144966 12
2.2843072 0.88153499 -3.5125215 12.5
-3.1553841 0.98018718 -3.5145757 12
-3.8018992 1.0180742 -3.5104887 12
2.3346686 1.0395224 -3.5113037 13.5
1.6245528 1.1185319 -3.5164838 13
2.2966626 1.1105866 -3.5133955 14
-3.4632909 1.263979 -3.5195625 13.0165
2.7046561 1.3024057 -3.5143158 12.1695
4.6111302 1.3750222 -3.5197639 13.157
2.4620721 1.4084429 -3.5194883 13
2.5391328 1.4183795 -3.5163836 13
1.6282659 0.48779094 -3.508018 10
2.1096375 0.49712858 -3.5066803 11.1645
-3.6681559 0.50975084 -3.5054986 10
-3.5716088 0.51207268 -3.5073297 10.017
2.3408515 0.51249272 -3.5089405 11
2.4988294 0.52329326 -3.5067956 11
2.5849721 0.52937806 -3.5058632 11
2.5858774 0.68364656 -3.5096531 12
-3.3909876 0.7658143 -3.5078654 12.021999
2.4988968 0.82863837 -3.5053682 12
2.4542904 0.97818053 -3.5087008 13
2.5166438 1.064056 -3.5064735 13.5
2.5897708 1.1537976 -3.5065937 14
-3.1758318 1.3293648 -3.5088174 13
4.6627903 1.3353118 -3.5012567 13.1535
-7.3192396 0.14970902 -3.4914024 9
1.6707761 0.49032372 -3.4963574 10.17
1.842738 0.50059634 -3.4993978 10.169
1.9800026 0.6676746 -3.4923921 11.168167
-7.3994551 0.83392781 -3.4995682 11
-3.3755674 0.83989906 -3.4965506 11.187251
-3.3812401 0.91147184 -3.4936662 12.52075
-3.3857863 1.112947 -3.4959464 13.022
-3.8158243 1.2745054 -3.4936888 13
-3.4775167 1.5418689 -3.4967754 14.02075
-3.7322714 1.7850031 -3.4985836 14
-7.3440657 0.49208328 -3.4848897 10
-3.7890751 0.76040065 -3.4849179 11
2.6974506 1.6206712 -3.4800782 13.1645
2.6851673 1.7848321 -3.4826899 14.1645
7.5743213 2.3755133 -3.4835753 14.1535
1.0197639 0.14512368 -3.476198 8.8385
1.0582592 0.14486217 -3.4795845 8
-3.6983016 0.63344425 -3.4739096 10.5
-3.1776109 1.0376492 -3.4782856 12.0205
-3.6971576 1.2674539 -3.478152 13
1.7774316 1.6729414 -3.4787924 14.1725
3.2951498 2.086642 -3.474756 14.16675
1.2473162 0.15286338 -3.4612303 8
-3.7635565 1.006065 -3.4681365 12
-3.8016772 1.5791482 -3.4634612 14
-3.7495248 1.7836174 -3.4681365 14.0175
7.7768846 3.1443219 -3.4655654 14.143
1.2442168 0.15261124 -3.4596159 8
1.1851023 0.16548628 -3.4531837 8.1730003
1.3266754 0.1914333 -3.4574425 9.1695004
1.8564582 0.61211056 -3.450799 11.8325
-3.6862862 1.0106233 -3.4555113 12
-3.7811532 1.3852457 -3.4590454 13
-7.3673201 0.14919728 -3.4421136 9
1.0100466 0.14430028 -3.444721 8
1.0359234 0.14601135 -3.4411068 8
-7.4053555 0.49200517 -3.4456165 10
1.580546 0.79313624 -3.4497411 11
-3.7631783 1.0037507 -3.4443829 12
1.6172161 1.1125753 -3.4416139 12.5
-3.7129996 1.2661988 -3.4456041 13.0175
-7.270174 1.5089569 -3.4422162 13
2.9503255 1.6597126 -3.4471633 13.657125
-6.1876554 1.9332485 -3.4447327 14
1.6306976 0.78356236 -3.4363151 12.4
-3.8387427 0.96573681 -3.4310381 12.5955
-3.7930703 1.4791087 -3.4391692 13.5
2.9974685 1.6695459 -3.4396753 13.16275
2.9823723 1.836483 -3.4371686 14.16275
2.655067 1.967034 -3.4303277 14
2.9359105 2.0157862 -3.4367301 14
-7.4710331 0.83399045 -3.4228137 11
-3.9141796 1.6756976 -3.4253132 14.01875
-9.3597603 1.7762992 -3.4283526 13.03125
-9.4638462 1.7926902 -3.4266028 13
-6.2052369 1.9334952 -3.4236317 14
2.7127512 1.9760939 -3.4281638 14
1.6660105 1.0044403 -3.4140837 14
2.61007 1.0576591 -3.4174743 13.1645
-7.4517279 1.2954398 -3.4143608 12
-3.8700786 1.3036796 -3.4110417 13.690999
3.0762913 2.0355942 -3.4125903 14
2.7513969 1.29742 -3.403702 12
2.9599669 1.3244678 -3.4085472 12
2.7487888 1.5228604 -3.407728 13
2.9653118 1.5536517 -3.4082901 13
-7.455801 1.6092577 -3.4073715 13
-7.3638716 0.67280376 -3.3908782 10
-7.3884096 0.97989166 -3.3923631 11
2.5853868 0.98847824 -3.3930485 13.252228
-3.5867136 1.0034926 -3.3990366 12
-3.4374614 1.2489624 -3.395597 12.771125
-8.9383402 1.3484824 -3.3986099 12
2.7298956 1.5191208 -3.3994892 13
3.1105452 1.5730039 -3.3948433 13
0.9701156 0.14549637 -3.384728 8.1759996
-3.7663243 0.79537392 -3.3839548 12.024
-3.5030777 0.87811834 -3.3808501 11.517
-8.9258642 0.98059076 -3.3811791 11
1.636259 1.096308 -3.3814301 13.1698
3.1265733 1.3437804 -3.3840129 12
-3.5607326 0.75341344 -3.3760135 11
1.5896931 1.2072551 -3.3744972 13
1.8716716 1.234153 -3.3726857 13
-7.447341 1.2929573 -3.3779056 12
2.5883062 1.3943987 -3.3768702 14.1645
-7.4603748 1.6073523 -3.3753319 13
-7.9680557 0.35194406 -3.3669014 9
-8.9150229 0.61761874 -3.36496 10
2.5780842 0.66238135 -3.3657546 11.661249
3.8618739 1.2341683 -3.3686981 13.159
-7.8720636 1.378803 -3.3643072 12.5275
-6.6164188 1.4474572 -3.3623502 13
-6.5036716 1.4405349 -3.3619249 13.025
2.587316 1.6098439 -3.3610578 14.1675
-3.9225609 1.6643474 -3.3662293 14
8.0891571 3.2339501 -3.3655031 14.14225
-7.6953688 0.67489904 -3.3561003 10.0315
1.5968534 0.996391 -3.3597267 12
1.7746897 1.1682303 -3.3561387 13.4
1.6363455 1.2444254 -3.3569365 14
-8.0022335 1.3334364 -3.3549693 12
-7.3818088 0.67179561 -3.3483021 10
1.6468326 0.79108822 -3.3443701 11
-3.8830295 0.82360446 -3.3424199 11.51875
-3.7772362 0.87932557 -3.341161 11.518
1.764469 0.94468319 -3.3402486 12
-7.3995895 0.97836769 -3.3465326 11
-7.8480616 0.99672914 -3.3465538 11.03175
1.6405236 1.0101072 -3.3464575 12.5
-6.4784279 1.1193473 -3.3460872 12.025
-3.9035895 1.1794307 -3.3409064 13
-3.7617779 1.1811644 -3.3436677 12.5225
1.9998432 1.2107238 -3.3409708 13.5
2.0579469 1.2189471 -3.3431046 13.5
2.0826848 1.3056313 -3.3414247 14.167
-3.7916536 1.5592022 -3.344234 14.0225
2.0119772 0.97087234 -3.3358433 12
