# .PCD v0.7 - Point Cloud Data file format
VERSION 0.7
FIELDS x y z intensity
SIZE 4 4 4 4
TYPE F F F F
COUNT 1 1 1 1
WIDTH 1302
HEIGHT 1
VIEWPOINT 0 0 0 1 0 0 0
POINTS 1302
DATA ascii
1.3418522 0.98305857 -3.5493941 12
2.1597576 0.88041604 -3.5435081 11
2.9212298 0.96433264 -3.5206232 11
-0.81456971 0.87160623 -3.57899 12
2.0978618 1.0632355 -3.6066041 12
2.2547626 1.2594151 -3.5518317 13
2.8108788 1.1404183 -3.5373812 12
2.1296592 1.4318585 -3.5625534 13
1.2769572 1.5263672 -3.5686746 14
2.1127589 1.6167855 -3.5654898 14
2.8782864 1.5369079 -3.5644846 13
-1.0731056 1.465363 -3.5970321 14
-0.86616254 1.4625502 -3.6039691 14
2.8406322 1.7253661 -3.567709 14
-2.8542922 0.61026001 -2.9355493 11
0.15742266 0.29162398 -0.64653409 8.5
0.11814868 0.54203939 -0.55681384 10.5
0.12950754 0.67383802 -0.59684408 12
0.0081785917 0.2847361 -0.32090259 8.5
-0.02295208 0.51702815 -0.24624813 10.5
-0.029167175 0.67427623 -0.25555682 12.5
-0.12588692 0.31852454 -0.16500747 9
-0.14354503 0.47339979 -0.17565942 10
-0.10995579 0.55162513 -0.18421233 11
-0.16611719 0.71167874 -0.18743527 13
-0.15401554 0.63065791 -0.17802548 12
4.2658854 1.3383055 0.22600818 13
4.248024 1.4549289 0.22375453 14
4.2659278 1.2702243 0.42150068 12.5
4.2526226 1.4448447 0.42512822 14
4.1901312 0.96416616 0.66539484 11
4.1952772 1.1873059 0.65384376 12
4.1733241 1.2939167 0.65837526 13
4.1563654 1.4016411 0.66694659 14
4.2235475 0.7552644 0.75474572 9
4.2147427 0.86182433 0.7498076 10
4.1785784 1.126168 0.83400851 11.5
4.1679678 1.2891215 0.82582366 13
4.1621847 1.3993728 0.81996495 14
-7.2347441 1.9132121 1.1454216 14
2.6517544 0.6350897 1.2865864 9.5
2.6420629 0.73236281 1.2860434 11.5
-0.53530252 0.39520282 1.5099536 9
2.6579778 0.63819665 1.3677005 9.5
2.641572 0.75845081 1.364077 12
2.6588235 0.60588115 1.9058683 9
2.6387165 0.78647685 1.9044862 12
-0.52862155 0.36431545 2.1637044 9
2.6512845 0.69611502 2.0185194 10
-0.53889751 0.49396154 2.1383495 10
2.637095 0.79739308 2.0198255 12
-0.53264499 0.37439513 2.335295 9
-7.2579508 1.9742033 2.322422 14
-0.532318 0.37936434 2.4147592 9
-0.2358191 0.33211061 2.4013398 7
-0.54602897 0.55212712 2.4068751 10.5
-0.54112089 0.4408755 2.7720082 9.5
-0.23141837 0.34513515 2.665833 7
-0.51078498 0.41077888 2.86621 9
-0.55146217 0.60396075 2.8682446 10.5
-0.54823005 0.42550254 3.0873728 9
-0.21628821 0.36664584 3.0719643 7
-0.54765916 0.59017825 3.0867095 10
-0.22377861 0.37967998 3.3313289 7
-0.53772366 0.45094082 3.4128318 9
-0.54932547 0.62973428 3.4040151 10
2.6404467 0.89076704 3.3551354 10.5
-0.20835149 0.39876044 3.6680913 7
2.6589773 0.6881901 3.8457522 8.5
2.6492012 0.82735407 3.8412576 10
4.2781196 1.4719815 3.8466244 12
4.2984324 1.6226919 3.864161 13
4.288166 1.7631936 3.8584185 14
-4.5781784 1.0442636 4.3547029 12
-4.5874672 1.2727524 4.3419781 13
-3.7850888 0.4014028 4.4972658 9
-3.6118333 0.41030303 4.5349736 9
-3.6283853 0.80994719 4.5355763 11
-3.6544549 1.0125811 4.5341911 12
-3.7173688 1.4250555 4.5138354 13
-3.7086732 1.6306314 4.5144582 14
-4.483201 1.7358634 4.4544096 14
-3.3506596 0.24733101 4.8668089 7
0.092613935 0.6068393 4.8240795 9
0.26707804 0.62465566 4.894536 9
1.2291073 0.63607144 4.8797646 8.5
1.7866821 0.74033117 4.861321 9
2.5123105 0.81335139 4.9025669 9
2.9774044 0.85974562 4.8841648 9
-1.1583977 0.61427152 4.8978753 9.5
-0.6918565 0.70144618 4.8884354 10
0.066403151 0.72565866 4.812191 10
1.2155983 0.8114109 4.8912005 10
-1.14217 0.83050668 4.8949146 11
-0.7491138 0.83642375 4.8970127 11
-0.14072263 0.9857412 4.9232411 11
0.22580183 0.99649644 4.9242129 11
0.40151739 0.87242544 4.8764534 11
0.70950723 0.89161724 4.8873763 11
1.3696045 0.93775433 4.8691778 11
2.9337904 1.1161869 4.8681293 11
3.1952872 1.1589649 4.9059029 11
-2.5038128 1.0136992 4.9259934 12
-1.1978614 0.98142529 4.9242487 12
-0.97442675 1.1286302 4.9469056 12
-0.15068519 1.1152756 4.9180756 12
0.042895913 1.1512682 4.7893829 12.5
0.20949209 1.1171488 4.9000521 12
1.7224879 1.3461335 4.9103475 13
2.093523 1.3918493 4.9011955 13
3.5594532 1.5072806 4.8936663 12
-1.3400676 1.2773025 4.8769379 13
-0.62106705 1.2608652 4.941071 13
0.032307386 1.3401127 4.7904625 14
0.20478499 1.3146244 4.9215665 13.5
2.0806999 1.504993 4.8570352 14
2.9959316 1.6091652 4.8815174 13.5
3.5368845 1.6483283 4.870852 13
3.8204236 1.6311772 4.8611307 12.5
-2.4885116 1.3627024 4.8743024 13
-1.3568697 1.431005 4.8773642 14
-0.59834814 1.3828938 4.8781395 14
3.3499982 1.7509248 4.851645 14
3.8137357 1.8670926 4.8655334 14
-2.5036597 1.5429153 4.8684187 14
0.45886111 0.52613586 5.0600848 7
0.71414083 0.55026889 5.1374087 7
2.54738 0.69526625 4.9586964 8
2.9513249 0.73057419 4.9496207 8
-1.3613465 -0.011270463 -6.4113359 8
-0.98868465 0.017326236 -6.4086723 8
-0.68121386 0.041346818 -6.396791 8
-0.56608319 0.050065726 -6.4055657 8
-0.036898971 0.093245953 -6.3331285 8
0.19977748 0.11213392 -6.3263669 8
0.52077132 0.13784069 -6.3202538 8
-1.4099095 0.2780301 -6.431704 9
-1.0986567 0.29851401 -6.4294472 9
-0.83626056 0.31622913 -6.4274225 9
-0.045991302 0.37120274 -6.3395939 9
0.094281316 0.38154882 -6.3411336 9
0.3789658 0.40284088 -6.3364048 9
0.78511214 0.43414947 -6.3344178 9
1.7332654 0.51226652 -6.3952384 9
1.8848895 0.52517289 -6.3913207 9
2.1907797 0.55174655 -6.3898797 9
2.4446769 0.57431924 -6.3995767 9
-2.4476709 0.52111745 -6.3401003 10
-1.4119523 0.57277215 -6.434814 10
-1.1199865 0.58865285 -6.4284163 10
-0.82872272 0.60561228 -6.4275556 10
-0.57178473 0.62130117 -6.4295559 10
-0.08466506 0.64940399 -6.3531537 10
0.070259452 0.65989327 -6.3517084 10
0.37615186 0.68109953 -6.3429255 10
0.74101222 0.70790982 -6.3381543 10
1.722108 0.79037547 -6.3902879 10
1.8743165 0.80417693 -6.3991323 10
2.1660931 0.83054984 -6.3981576 10
2.4186168 0.85410953 -6.399395 10
-2.4859927 0.8235532 -6.3386631 11
-1.4654243 0.86483693 -6.4614482 11
-0.67142546 0.90146214 -6.4430079 11
-0.60442686 0.90549427 -6.4482856 11
-0.10883892 0.92694229 -6.356801 11
0.0468328 0.93616605 -6.3501019 11
0.35180444 0.95644522 -6.3512635 11
0.7161243 0.98231798 -6.3512621 11
1.6981912 1.0686014 -6.4277644 11
1.9352195 1.0904101 -6.4296308 11
2.2294371 1.1182272 -6.4284554 11
2.3812299 1.1331007 -6.4277005 11
-2.5457916 1.1376848 -6.4199009 12
-2.4489706 1.1387775 -6.4709134 12
-1.4614465 1.1675467 -6.5176024 12
-1.1725667 1.1760156 -6.5041585 12
-0.87179732 1.1879261 -6.5030322 12
-0.63496387 1.1984735 -6.5043473 12
-0.10593724 1.2107418 -6.3734312 12
0.034959912 1.218658 -6.3717566 12
0.3265143 1.2364109 -6.3692493 12
0.69133699 1.2612741 -6.3700047 12
1.6894318 1.3546178 -6.4720359 12
1.8444612 1.3686016 -6.4679151 12
2.1234674 1.3956141 -6.4655671 12
2.3605487 1.4200666 -6.4678893 12
-2.566004 1.4519198 -6.4357867 13
-2.4719281 1.4503403 -6.4746585 13
-1.4932964 1.4649196 -6.5023341 13
-0.77448773 1.4850082 -6.5008073 13
-0.65575969 1.4888816 -6.4969754 13
-0.15801811 1.4935324 -6.3803577 13
0.012099028 1.5011566 -6.3726077 13
0.30318201 1.5176692 -6.3713303 13
0.67089403 1.542362 -6.3769212 13
1.6496885 1.6346877 -6.4599595 13
1.8018399 1.6489897 -6.4584422 13
2.093801 1.6777613 -6.4534326 13
2.3464751 1.7049677 -6.4549632 13
-2.552542 1.7567451 -6.3816662 14
-2.4876952 1.7559257 -6.4068594 14
-1.4905367 1.7439394 -6.375452 14
-0.24260795 1.7813339 -6.4088559 14
0.23660016 1.8009906 -6.3891382 14
1.5836995 1.9195399 -6.483151 14
-0.97082949 0.23625055 -3.5726151 8.75
-0.72502303 0.2029866 -3.644434 8.5
0.21647573 0.27013597 -3.7097793 8.5
1.0608608 0.30506328 -3.7048836 8.333333
1.4590766 0.38654548 -3.6068153 8.6000004
2.1460006 0.42661884 -3.6948833 8.5
-1.0809102 0.47630775 -3.5939927 10
-0.79074168 0.49010468 -3.6319604 10
0.21103907 0.55062491 -3.7142572 10
1.0857166 0.61316109 -3.7087264 10
1.4869614 0.64644969 -3.7139025 10
2.1389773 0.70504981 -3.695765 10
-1.0201309 0.75046039 -3.5792484 11.4
-0.77653098 0.78378671 -3.6633992 11.5
0.18216622 0.83116007 -3.7323189 11.5
1.0620428 0.88794833 -3.7209926 11.5
1.4357263 0.88291514 -3.6638408 11.333333
2.1248698 0.97781587 -3.6439762 11.5
-1.1634672 1.0100439 -3.6507339 12.666667
2.0981486 1.4336565 -3.5932159 13
-1.0302544 1.3643758 -3.5927668 13.5
-0.8333478 1.3793852 -3.6852331 13.5
0.13040936 1.4059339 -3.7591915 13.5
1.0396 1.4524374 -3.746243 13.5
1.3993002 1.4792883 -3.7311082 13.5
2.0719244 1.5764863 -3.6973286 13.666667
1.3952794 0.27566481 -3.5246449 8
2.1831446 0.52096796 -3.531147 9
2.5864511 0.4366031 -3.5262651 8.333333
2.8431242 0.52132839 -3.5255985 8.666667
3.0621929 0.41749001 -3.5096273 8
1.3911927 0.63010573 -3.5362525 10
2.2400043 0.70792633 -3.5393753 10
2.6030769 0.74444503 -3.5300341 10
2.8877356 0.77449286 -3.5240965 10
1.3675863 0.92515254 -3.5441923 11.666667
2.2765818 0.98416561 -3.5408158 11.5
2.575151 1.018119 -3.5376697 11.5
2.8103402 1.0462024 -3.5365872 11.5
1.3422459 1.287598 -3.5640445 13
2.2383242 1.4460132 -3.5644345 13
2.4328313 1.4718726 -3.5646348 13
1.3211011 1.5305669 -3.5699639 14
2.2225657 1.6315734 -3.5657291 14
2.5460663 1.5825434 -3.5633621 13.5
2.7523317 1.6456299 -3.5627561 13.666667
-2.8310897 0.6106171 -2.9431982 11
-2.8876998 0.93383735 -2.9541616 12.5
-2.9374359 1.4824326 -2.9782596 14
0.13023961 0.31869894 -0.59860814 8.75
0.14595997 0.67972475 -0.64017546 12
0.031268716 0.33966771 -0.37483895 9
0.072412133 0.43001661 -0.43850863 9.666667
-0.0031099319 0.68161213 -0.3203063 12.5
0.070533514 0.63851607 -0.47079813 11.75
-0.0092349052 0.80806673 -0.35433161 14
-0.10615313 0.34528002 -0.16703236 9
-0.13423169 0.61051273 -0.17847669 11.75
4.2757835 0.86613286 0.3098433 10
4.3078747 1.0479484 0.26513159 11
4.2621231 1.3359215 0.25817978 13
4.2798595 0.86745864 0.38152289 10
4.3067408 1.0461929 0.37233794 11
4.2605762 1.3300321 0.37800896 13
2.6734157 0.65177119 0.9211089 10
4.2161827 0.8072058 0.71118915 9.5
4.1785898 1.1265453 0.72739917 11.5
4.1652632 1.346633 0.71819359 13.5
-7.2416954 1.9155755 1.1797876 14
-0.5367192 0.4579308 1.5152667 10
2.655844 0.64878964 1.3811443 10
-0.53960276 0.58373219 1.5100027 12
2.640914 0.80910784 1.391012 13
-7.2724857 1.9291487 1.4097631 14
-7.2803955 1.9417083 1.674475 14
-0.53556812 0.46243674 2.1534452 10
2.6488237 0.66839415 1.9345286 9.875
2.6399212 0.83465379 1.863332 13
-7.2800322 1.9577069 1.9847929 14
-0.53832698 0.45941347 2.3303599 9.75
-0.21373272 0.33366883 2.4037898 7
-0.54270291 0.58077288 2.3506653 11
-7.2744217 1.9724588 2.250072 14
-0.54312205 0.55356073 2.7682991 10
-0.23656106 0.34211978 2.610961 7
-0.54861617 0.629439 2.7651529 11
-0.54559469 0.50296539 2.9627342 9.75
-0.55420113 0.64750928 2.9002051 11
-0.53825414 0.42651984 3.0954418 9
-0.22131586 0.37621889 3.2621248 7
-0.54458487 0.51669896 3.3957272 9.5
-0.20819187 0.39767435 3.6477923 7
2.6568303 0.72092348 3.3683946 9
2.6431398 0.93122721 3.3512752 11
2.658999 0.71834785 3.7643466 8.8000002
2.6429458 0.91742933 3.8197002 10
4.2858343 1.5492845 3.8705468 12.5
4.2874346 1.7664089 3.8749847 14
4.280118 1.4938281 3.9775701 12
4.2870941 1.7153404 3.9840589 13.5
-3.6380212 0.40724361 4.5042515 9
-4.4283791 0.36935705 4.3563476 9
-4.3086643 0.48936331 4.4428473 9.5
-3.9216149 0.60404193 4.4797049 10
-3.6938279 0.50522304 4.4996953 9.5
-4.4363556 0.81086993 4.3361955 11
-4.3103333 0.82182175 4.4852047 11
-4.0366488 0.81476235 4.4861169 11
-3.7173502 0.87456942 4.4892063 11.333333
-4.4885902 1.0465531 4.4228911 12
-4.3148251 1.0945427 4.450666 12.25
-4.0816813 1.1376973 4.4789577 12.5
-3.8347347 1.0152152 4.4758139 12
-4.4785719 1.2623878 4.3391824 13
-4.3684216 1.2690682 4.4684229 13
-4.0170822 1.4513474 4.4598193 13
-3.7813871 1.4271355 4.4805689 13
-4.368494 1.7179241 4.4518056 14
-4.103446 1.6771121 4.4474568 14
-3.8015921 1.6368985 4.4731283 14
-3.2637951 0.25334492 4.8705611 7
0.072743654 0.60564101 4.8248491 9
0.20447159 0.67574286 4.8375669 9.5
1.1987271 0.68984848 4.858849 9
-0.0056812763 0.82947016 4.8526626 10.5
0.18290806 0.96846861 4.8353701 11
0.052291751 1.0904598 4.7965474 12
0.15909803 1.1584344 4.8125982 12.5
0.15379179 1.3483267 4.8196392 14
-3.6890571 1.4361038 4.6024318 13
-3.7048366 1.6446276 4.5948148 14
-1.1410191 0.54506689 4.9214954 9
-0.18475342 0.59632659 4.89926 9
0.37474662 0.69240874 4.8931313 9.5
0.62409705 0.62550366 4.9973865 8.25
0.88287234 0.72905767 4.9042025 9.5
1.206615 0.73715746 4.9253063 9.333333
1.3810434 0.83346796 4.9549909 10
1.6573813 0.82359809 4.9158244 9.75
2.0763328 0.88901943 4.8773603 10
2.6574628 0.78647602 4.9107385 8.666667
3.0084085 0.77794522 4.9240413 8.333333
3.1564147 0.85625958 4.9375896 8.8000002
-1.1788774 0.75813168 4.8913469 10.5
-0.94698906 0.73990929 4.8911319 10.333333
-0.68572116 0.79270536 4.8933415 10.666667
-0.41413891 0.84666914 4.9048667 11
-0.17754161 0.83333051 4.911159 10.5
0.35044533 0.98373944 4.8962603 11
0.56318128 0.99571121 4.9015813 11
0.86912531 1.0051572 4.8843384 11
1.1749489 1.023231 4.8772726 11
1.4705501 1.0595081 4.8814225 11
1.7426422 1.0684097 4.8831124 11
2.1206958 1.0338113 4.8940277 10.666667
2.3180633 1.0424314 4.9026256 10.5
2.6583719 1.0749345 4.9003992 10.5
2.9664221 1.140703 4.8943315 11
3.1355028 1.0823681 4.9068751 10.5
-2.5229785 1.0134362 4.9195428 12
-1.2259738 1.030781 4.9223695 12
-1.0309625 1.0915563 4.9156227 12
-0.72234678 1.1553268 4.9206781 12.333333
-0.45600235 1.1132867 4.9105659 12
-0.22233295 1.1138282 4.9134827 12
0.29521114 1.2058663 4.9066362 12.666667
0.46497792 1.2227728 4.9120092 12.75
0.84988576 1.2594428 4.8691087 13
1.1498131 1.278627 4.8669596 13
1.4448664 1.3060377 4.8712916 13
1.6921179 1.3339809 4.8782549 13
2.0632942 1.3227017 4.894309 12.5
2.3188789 1.2906691 4.8788166 12
2.6348069 1.3387947 4.8782229 12
2.976012 1.4662178 4.8808665 12.5
3.2044356 1.4530549 4.8788443 12.333333
3.5431991 1.5070229 4.9079771 12
3.822551 1.5580394 4.8839107 12
-2.5149117 1.3650582 4.8743281 13
-1.2326925 1.3467778 4.8788824 13.5
-1.0488145 1.3367505 4.8838406 13.5
-0.79263353 1.3471819 4.88551 13.666667
0.43803978 1.3672733 4.8715944 14
2.030741 1.4984505 4.8601527 14
2.9923053 1.6716917 4.8532577 14
3.2465177 1.6786425 4.8520789 13.666667
3.5101597 1.7157063 4.8616567 13.5
3.8072803 1.7890756 4.8771505 13.5
-2.5299942 1.5459409 4.8683062 14
-1.6608512 1.1634684 -6.500854 12.0095
-2.3063123 -0.079546183 -6.3144336 8.0120001
-2.3765228 0.52494836 -6.3774362 10.012
0.88249832 0.72113878 -6.3559208 10.001
-1.6458986 1.7427487 -6.3427968 14.0095
-1.0236788 1.8711824 -5.5343571 14.00825
-0.67611229 1.8629246 -5.4808421 14.007
-0.41802728 1.8683143 -5.4844012 14.006
0.087731123 1.8824296 -5.4738007 14.004001
0.53564155 1.9181957 -5.5354009 14.00225
0.78092128 1.9331305 -5.5334234 14.00125
1.6963224 2.0054231 -5.5097651 14.177501
2.0645576 2.0450873 -5.5076175 14.176
-2.5639141 1.8552763 -5.2884398 14.014
-2.3224616 1.8690686 -5.4110222 14.013
-7.6389465 1.5305159 -5.2081032 13.026
-0.59030581 0.21270591 -3.710094 8.5094995
0.0005531311 0.34941223 -3.7235446 9.0065002
0.68286371 0.21426873 -3.6956635 8.0030003
0.90856063 0.32408243 -3.6850405 8.50175
1.6004122 0.28831127 -3.7132835 8.1780005
1.8307984 0.30756307 -3.709075 8.1767502
-0.22611988 0.71700382 -3.723515 11.0075
-0.31780326 1.1069093 -3.7673402 13.00775
0.048129797 0.92348826 -3.7438641 12.006
0.96957386 1.3612185 -3.7704344 13.001
-6.9293489 1.3734367 -3.7178345 13.02825
-6.6175709 1.3548677 -3.8105931 13.0275
-6.3041325 1.3295943 -3.790926 13.027
-1.8181264 1.5291798 -3.745935 14.0145
-8.0025539 1.4583099 -3.6425357 13.03
-1.1570861 0.076443702 -3.5557966 8.0124998
2.8970504 1.4992955 -3.3246226 13.17
-5.2962561 1.2432373 -3.6108694 13.0255
-1.8556144 1.5047605 -3.6045308 14.015
2.9918611 1.7078018 -3.3513317 14.169499
3.3657231 1.8179736 -3.5556417 14.167999
3.5728655 1.8570404 -3.5525465 14.167
-5.7994385 1.5873806 -3.6122265 14.0265
-8.2030268 1.4663835 -3.4562688 13.03075
-6.5216322 1.6574867 -3.5448141 14.028
-5.0985823 1.7749414 -3.3509998 14.02575
8.7734556 2.9086978 -3.607316 14.1515
-2.9595211 0.6098842 -2.9436622 11.02125
-4.1788397 0.86783373 -2.9727631 12.02475
-3.8075511 0.85387617 -2.9716816 12.02375
-3.4539244 0.84122962 -2.9609256 12.02275
-3.0258615 0.8828038 -2.9592237 12.271375
-4.204957 1.1193748 -2.986146 13.02475
-3.833977 1.0955992 -2.9860654 13.02375
-3.3991868 1.069023 -2.9752631 13.0225
-3.0779541 1.0509014 -2.9677982 13.0215
-2.8233545 1.4707127 -2.9858446 14.0205
-4.2483435 1.6274581 -3.0055285 14.02475
-3.8698251 1.5822003 -2.999567 14.02375
-3.4400427 1.5339842 -2.9941306 14.0225
-3.0439937 1.4921484 -2.9870234 14.02125
-8.2039509 1.4441152 -2.9625812 13.032
-6.8871717 1.6604626 -3.0504899 14.03
-5.3681059 1.768163 -2.9823093 14.0275
-5.2889919 1.7699523 -3.0953794 14.027
-8.206315 1.4327469 -2.6655302 13.03275
-6.2264023 1.8447497 -2.5042872 14.0305
-5.5328636 1.7677767 -2.7600446 14.0285
-6.3045807 1.8398194 -2.2966762 14.03125
1.8572581 0.41758683 -1.4268748 8.6742496
1.856204 0.41870427 -1.1646079 8.6737499
4.2697372 1.5970387 -1.103819 14.155001
-0.44007671 0.39451984 -0.44203413 10.02
0.13734126 0.46604797 -0.6051091 9.8707142
7.4457502 0.91281539 -0.69507706 8.1447506
0.12322509 0.74261606 -0.63614023 12.763375
4.2933416 1.4968708 -0.73593509 13.724287
-0.50030649 0.47257575 -0.16568017 10.022583
-0.096514583 0.42187601 -0.23259616 9.8365917
-0.36563897 0.64834666 -0.27363884 12.0205
-0.13341022 0.75239915 -0.26857543 13.4183
0.035453081 0.81433344 -0.41638732 14.0155
4.271121 1.5017474 -0.28435206 14.15
-8.2112904 1.3928356 -0.39035368 13.039
-0.53790605 0.47945541 0.24394023 10.312429
0.045173407 0.2937637 0.090619087 8.5197506
0.14469516 0.2962454 0.29533875 8.4207001
2.7153943 0.82160759 0.29997969 12.155
4.2748051 1.218137 0.21200109 12.1465
4.2647667 1.4684415 0.078838825 14.147375
9.7509842 3.3666933 -0.16981816 14.14
9.915307 3.4235466 0.034884572 14.13925
-0.53382385 0.44386256 0.63813043 10.3312
0.14083719 0.36493707 0.60142684 8.8247004
1.6512284 0.46639022 0.5917595 9.1693754
1.7104056 0.56193185 0.6358723 11.833777
2.3814855 0.46665996 0.69193304 8.1540003
2.6332612 0.6580739 0.62315965 10.294786
3.8724539 0.60628909 0.54235554 8.1455002
4.2883649 0.91415584 0.47061396 10.5445
4.2913976 1.2533004 0.4703635 12.477666
4.262238 1.4458334 0.41829491 14.144751
-7.1486902 1.8835196 0.4135443 14.041
10.085855 3.4855483 0.40409815 14.138
-0.51950467 0.44713059 0.85949743 10.234
0.1495142 0.32638875 0.85223484 8.4287004
2.6735752 0.61970985 0.8527199 9.6481676
10.190729 3.5270402 0.70981294 14.137
-0.51945472 0.45110795 1.3954356 10.10453
0.056019545 0.30680844 1.4879379 8.0428343
2.4404726 0.55342174 1.3848425 8.7105007
2.6418154 0.66061157 1.3455073 10.42488
10.316936 3.5820286 1.1014389 14.13575
-0.53930163 0.49952722 1.7835879 10.49815
0.063533068 0.31663746 1.7130363 8.0480003
2.4625545 0.56513464 1.754938 8.630125
2.6238542 0.7107417 1.7560171 11.030574
-0.53839946 0.47890767 2.1778924 10.104026
2.3246551 0.53798068 2.1797063 8.1195002
2.6496406 0.73578686 2.170655 10.804637
-0.9381628 0.68496186 2.3153424 12.05425
10.448315 3.6657097 1.9421072 14.13325
-0.7197938 0.34975553 2.6632991 8.559
-0.53728807 0.43220353 2.6015229 9.2817211
2.3552644 0.6203323 2.5809436 9.1130753
2.5909548 0.73438245 2.4758136 10.339557
-0.95640731 0.6938957 2.3822937 12.055
-7.1454897 1.9738762 2.604177 14.0485
10.436497 3.687026 2.3506837 14.132
-0.53015614 0.47036904 2.9932013 9.3416119
0.47704673 0.41173765 3.0184073 8.0750008
0.52001935 0.46893579 2.9934716 9.0756254
2.6361933 0.85714912 2.9962382 10.944916
3.0074904 0.76433223 2.7847462 9.6171255
4.2692337 1.5765471 2.8845305 14.122749
-7.1425543 2.0034547 2.9745674 14.04975
10.490289 3.7370729 2.7710967 14.13075
-2.9041412 0.21117109 3.5899625 8.0574999
-0.52366865 0.46775806 3.3981724 9.0049057
1.6499441 0.63464177 3.3097529 9.3815002
1.7108525 0.52493978 3.2766016 8.0967503
2.6623344 0.79138976 3.3383145 9.745182
-0.8746078 0.72833538 3.381963 11.065
4.2767696 1.2800093 3.4742682 11.1185
4.2730751 1.643863 3.2834809 14.119834
-7.0210381 2.0146918 3.3249772 14.051
10.524782 3.7705488 3.0271649 14.13
-2.8818214 0.21857326 3.7107987 8.0582504
-0.41174734 0.5534991 3.672678 9.6259441
-0.1836077 0.40340999 3.7240009 8.0725002
1.660033 0.6131835 3.6201973 9.0950003
2.6633837 0.76184207 3.6343713 9.2733335
4.2942343 1.3969603 3.6437683 11.784167
4.3044052 1.7319109 3.6961999 14.11725
-7.8169107 1.8749857 3.8418856 14.052
-6.9416733 2.0515265 3.8034973 14.05275
10.606295 3.8672268 3.7323666 14.128
-4.5398626 0.36581758 4.3611245 9.0574999
-4.6310978 0.81735575 4.3457594 11.0575
-4.6790943 1.0499973 4.3511744 12.0575
4.2995071 1.7227411 4.0728402 13.543571
-5.003335 1.3129573 4.3533545 13.057
-4.7060957 1.2843072 4.3464942 13.0575
-6.8514776 2.0691826 4.0838161 14.05375
-6.6163626 2.0487449 4.2372432 14.0545
-6.346014 2.0109515 4.2928548 14.055
10.597874 3.9030819 4.0838122 14.127
10.669974 3.9101181 3.9235058 14.1275
-3.6135142 0.41201031 4.5605979 9.0605001
3.9133348 1.5041287 4.5174909 12.11075
4.10605 1.536062 4.4634538 12.112
3.8955646 1.7203455 4.5068483 13.61075
4.2118444 1.7588878 4.4281549 13.446056
-3.69471 1.5187919 4.6776915 13.3945
-6.2474194 2.0311549 4.5555387 14.056
-6.0066404 2.0215492 4.7561541 14.057
-0.90978742 0.65869939 4.8942471 9.8231249
-0.37822819 0.52740663 5.0238152 8.5768747
-0.15430748 0.60030228 4.9494252 9.0783005
0.45397609 0.61418045 5.0001349 8.8330002
0.71968472 0.55113584 5.1043949 8.0851994
1.110461 0.64269304 4.9995055 8.6597862
1.574332 0.65804029 5.0063972 8.4671869
1.801008 0.67032534 4.9694285 8.4274168
2.3660586 0.7413919 4.9620819 8.5986252
2.7052162 0.71093649 4.991641 8.1009998
2.9748063 0.86262643 4.9243388 9.1031675
-2.4946096 1.0110234 4.9095063 12.06575
-2.1295066 1.0004134 4.9183831 12.067249
-1.6897795 0.98992282 4.9250474 12.06925
-1.2614005 0.91768813 4.9145923 11.642785
-0.89501071 0.90823776 4.9129004 11.3235
-0.43936384 1.033411 4.9146633 11.6765
-0.23561287 1.0735497 4.9326744 11.744667
0.23015344 1.0217676 4.8411179 11.4145
1.2329239 0.92730182 4.8790002 11.0895
1.8982973 1.2013617 4.8901563 11.809642
2.3724313 1.256026 4.8870592 11.765834
3.0482278 1.3161274 4.8780951 11.770667
3.4088871 1.4377677 4.8890643 12.10625
3.6582248 1.3808589 4.9349198 12.1075
-2.5675685 1.3702018 4.8754587 13.065499
-2.1844614 1.3372413 4.8761706 13.067
-1.7926335 1.3474479 4.8768582 13.31875
-1.3532026 1.3640728 4.8802185 13.626612
-0.92446828 1.3316288 4.8916545 13.5735
-0.15550172 1.3313293 4.9029207 13.745334
0.13390589 1.3401446 4.7941594 14.0805
0.53344148 1.3696542 4.8752813 14.084
1.8628931 1.473841 4.8628135 14.09525
2.3294888 1.543509 4.8585253 14.099
2.6802425 1.6093204 4.8645024 14.101624
3.0640228 1.6169939 4.8684187 13.60425
3.4280934 1.7051449 4.8599768 13.677999
3.7976782 1.712738 4.8228827 13.233811
-3.6780946 1.5858135 4.8675518 13.562
-3.4149282 1.5548069 4.8703413 13.56275
-3.0022309 1.5063934 4.8667212 13.564
-2.583777 1.5528507 4.8701725 14.065499
-2.2002723 1.5099838 4.8718934 14.067
-1.9124417 1.4807336 4.8750548 14.06825
6.4756823 2.401803 4.8783808 14.1185
-6.8368034 1.5448096 4.8323956 13.056
-6.5223284 1.5181863 4.8636727 13.0565
-5.4205866 1.9331219 4.7804437 14.058
-9.1587038 1.8530633 5.5546246 13.0555
-0.54866385 0.66767395 5.944437 9.0784998
-7.6622896 2.075609 5.6893721 14.0575
2.6678667 0.94195551 6.1481085 9.0982494
2.6716533 0.98696142 6.6339736 9.0974998
3.4495683 1.1647872 7.7454462 9.0994997
-6.3011484 2.2995486 9.9234533 13.069
3.7530797 2.9457445 9.8045902 14.0985
-5.8000793 2.3382242 10.239571 13.0705
3.5197203 2.9936476 10.115088 14.0975
4.1103573 3.0300629 9.910758 14.0995
-3.5307095 2.6771951 10.388846 14.076
-3.343303 2.7748058 10.797662 14.077
-3.279659 2.8446612 11.079637 14.0775
-3.0603902 2.948658 11.498144 14.0785
-1.4855359 1.7486618 -6.391613 13
-1.4095218 1.1304845 -6.3550282 11
0.54040945 1.2676829 -6.501564 11
-1.0723703 1.7635902 -6.4194613 13
-1.2061193 2.0427144 -6.2840815 14
0.65960515 2.2432768 -5.6463499 14
-0.42657661 0.31961849 -3.7586391 8
0.36369741 0.39319688 -3.8329875 8
1.0818515 0.46155095 -3.9249594 8
-0.4568398 0.52371764 -3.7332337 9
0.27207732 0.58453953 -3.8291457 9
0.51418567 0.60561788 -3.85587 9
-0.4994092 0.72875857 -3.7326262 10
0.30901456 0.78940427 -3.8485568 10
0.51930475 0.80444068 -3.8424394 10
-0.49817157 0.9356066 -3.7346361 11
0.254807 0.98350304 -3.8239748 11
0.45575643 0.99824512 -3.8479497 11
-0.52484465 1.144995 -3.7479832 12
0.21799695 1.1893966 -3.8715546 12
0.45307446 1.1998149 -3.8594201 12
-0.67138743 1.5645568 -3.7298639 13
-0.55676579 1.5728387 -3.7767184 13
0.19315004 1.5915346 -3.829241 13
0.41141844 1.6047795 -3.8643477 13
-0.64537358 1.7774137 -3.7286255 14
0.2008214 1.8061539 -3.8689678 14
0.34905672 1.8080831 -3.8660181 14
-0.53721976 0.31035244 -3.5477898 8
1.4905918 0.50165302 -3.7997096 8
1.6411842 0.51639593 -3.8118975 8
-0.55698228 0.51170939 -3.5695159 9
1.4516962 0.68736833 -3.8042967 9
1.6375012 0.70586526 -3.835655 9
2.2833252 0.77702641 -4.0743589 9
-0.56916356 0.71433848 -3.5561216 10
1.4142371 0.87432253 -3.7972586 10
1.6189358 0.89467341 -3.8261449 10
2.2620966 0.97178203 -4.0445766 10
-0.6051569 0.91399872 -3.544718 11
1.3755293 1.0601926 -3.7934673 11
1.5996395 1.0826058 -3.825062 11
2.2408178 1.1688592 -4.0678978 11
-0.61498189 1.1207187 -3.5673797 12
1.3565053 1.249981 -3.7906091 12
1.5782951 1.2737126 -3.8319581 12
2.2201238 1.370436 -4.0939045 12
-0.92314887 1.5268862 -3.5056951 13
1.3165669 1.6358122 -3.7940385 13
1.5791839 1.6965452 -3.9917052 13
2.1580441 1.7664603 -4.0704823 13
-0.92430568 1.7394984 -3.5143282 14
-0.69307542 1.7422879 -3.5597994 14
1.2948959 1.8326486 -3.8051374 14
1.5087854 1.8541439 -3.8333099 14
2.1758773 1.9750117 -4.079216 14
2.5490313 0.60673666 -3.9210694 8
2.8236592 0.63454688 -3.9658988 8
2.5862849 0.8030982 -3.9190776 9
2.9011533 0.83820021 -3.9759133 9
2.3747106 0.9743191 -3.9111574 10
2.78286 1.0222523 -3.9734619 10
2.3537111 1.1648514 -3.9150088 11
2.6623797 1.2018187 -3.9478962 11
2.3334911 1.3585038 -3.921849 12
2.699198 1.4038992 -3.9535763 12
2.4274569 1.569165 -3.940305 13
2.2729905 1.7470838 -3.9204595 13
3.0498331 1.8574629 -3.9827182 13
2.2903798 1.9493524 -3.9247215 14
3.2200007 2.1059608 -4.0533438 14
-2.356673 1.707329 -2.8785617 14
-2.7614696 1.0257405 -2.6749651 12
-2.7889168 1.2560809 -2.6818717 13
-2.8444235 1.7230881 -2.6957891 14
-7.7525339 1.1577146 -1.4871104 12
-7.8038149 1.5272077 -1.5346982 13
-7.8356829 1.8954425 -1.5009205 14
-7.6912041 1.1414762 -0.9145267 12
4.7269325 1.6422703 -2.1059954 12
4.7033062 1.8058671 -2.1277711 13
4.667798 1.9590298 -2.104023 14
-7.5805063 1.4673688 0.3055315 13
0.73727536 0.48801401 -0.78981066 8.5
0.71113992 0.72818929 -0.79946232 10
0.69809699 0.87293345 -0.78920293 11.5
0.64907312 1.0001428 -0.66909862 13
0.62613225 0.43207294 -0.4348762 8
0.23858082 0.82768959 -0.37809134 11.5
0.52685857 1.0507312 -0.40240872 14
0.54133606 0.51158381 -0.29952812 9
0.49377525 0.72803998 -0.31430089 10.5
0.45537734 0.9061892 -0.31662154 12.5
-6.38519 1.95971 1.2017506 14
4.9377069 1.7414082 -0.38899636 14
4.9678507 1.5497373 -0.30430913 12.5
4.9506183 1.7351977 -0.30994153 14
3.4198217 0.74428195 0.32022023 8.5
3.4053819 0.89816928 0.29266119 10
3.457607 0.74784499 0.43215883 8.5
3.4087522 0.94970226 0.43451345 11
3.4667883 0.85542411 0.77163571 9.5
3.4525185 0.98630071 0.79619896 12
0.32558894 0.55644298 1.5530266 9
0.32812655 0.68272102 1.5677 11
0.32568812 0.74606109 1.5478017 12
3.4861372 0.95075065 1.0887145 11.5
3.538641 0.85912484 1.329762 9.5
3.5176971 0.97775328 1.3283288 12
-6.1257763 1.9854801 2.6905766 13
0.45932734 0.49205652 1.9425887 7.3333335
3.564188 0.74384928 1.4612441 8
0.44957757 0.70148945 1.9584109 10
0.49802637 0.52214044 2.1745968 8
3.5755749 0.87104857 1.6656811 9.5
0.46862912 0.74441272 2.1619911 10.5
3.5595572 0.99278569 1.6668975 12
3.6077609 0.88615417 1.9067079 9.5
3.5880549 1.011802 1.8905157 12
0.55069923 0.54432064 2.6422224 8
0.52788186 0.71495885 2.6355841 9.5
0.60648715 0.48553541 2.8043437 7
0.55350053 0.69636869 2.8203347 9
0.58671582 0.76456404 3.1201553 9.5
5.3081474 1.6162726 2.4357862 12.5
5.2870216 1.7935791 2.4304533 14
5.3619514 1.4504018 2.4743438 11
0.65003359 0.5539549 3.4985931 7.5
0.63404191 0.76639169 3.4905128 9
5.3494568 1.652204 2.710634 12.5
5.3150339 1.8300896 2.6908584 14
-3.2373359 1.095279 4.7520289 11
-3.5754893 1.3453456 4.7969561 12
-6.7726297 0.62652612 5.5557346 9
-6.7909098 0.97012174 5.5830345 10
-6.8353109 1.3202568 5.6196737 11
5.0620661 1.6344385 3.8074658 12
5.0433168 1.8357526 3.8114181 13.5
-6.8722868 1.678946 5.6904736 12
0.81135702 0.69291788 4.8067446 8
1.4939218 0.68312979 4.6296568 7.5
1.7737564 0.76493776 4.665731 8
2.2208953 0.80304354 4.5820255 9
2.4984305 0.82846093 4.535882 9
0.15424681 0.78483999 4.8890877 9
0.53673065 0.8009938 4.8337231 9
0.85525489 0.81617463 4.7870073 9
1.2705989 0.8412087 4.7484717 9
1.5153227 0.84699345 4.6227784 9
1.8576176 0.98632812 4.6542668 10
2.1015055 1.0025237 4.5949492 11
-0.08861208 0.91433114 4.9082322 10
0.14416289 0.91879177 4.8837156 10
0.55844831 1.0593567 4.8518305 10
1.5284995 1.1731843 4.6119194 11
-1.2213247 1.0775492 5.0482588 11
-0.86720943 1.0698968 5.0138454 11
-0.12255216 1.0595956 4.9343257 11
0.10062051 1.1970823 4.9055099 11
0.22627449 1.1929481 4.8842936 11
0.54725218 1.1879299 4.8473835 11
1.0837145 1.1876185 4.7817316 11
1.5175369 1.2835929 4.6117935 12
0.09216094 1.3351033 4.8955793 12
0.30610359 1.3930724 4.8708258 12.5
1.0563623 1.4229045 4.7558551 13
1.5056717 1.395705 4.6150227 13
-1.25736 1.4242717 5.0451088 12
-0.9155066 1.3966895 5.0030317 12
0.094335079 1.468912 4.869576 13
-0.92803693 1.5610085 4.9966393 13
1.2676921 0.72800887 4.7755928 8
1.6972169 0.65242696 4.7232304 7
2.5625074 0.7335602 4.5901375 7
3.0055976 0.88171244 4.4963741 9
3.7290392 0.90815824 4.4452019 8.5
4.1960983 0.96053874 4.3819718 8.5
4.5624461 0.98311234 4.3527808 8.333333
3.0778611 1.0519716 4.5071645 10.5
3.5255218 1.0533104 4.4619775 10
3.6857154 1.185835 4.4249759 11
4.2016101 1.1403996 4.3373365 10
4.5817204 1.1964943 4.2978845 10
1.0986483 1.0698072 4.7912016 10
1.2452327 1.0747575 4.7763052 10
1.5859945 1.0874974 4.728754 10
4.5570731 1.4534996 4.3102074 11
1.1421751 1.2565844 4.809104 11.5
1.2243178 1.3092668 4.7671833 12
3.6732597 1.4745625 4.4167385 12.5
4.0394897 1.6056541 4.3676062 13
4.5396938 1.58145 4.3016195 12
4.9889097 1.6787325 4.2345877 12
1.212621 1.4283748 4.766078 13
1.7473389 1.4339877 4.7043505 13
3.4927053 1.6119837 4.4144945 14
3.6310358 1.6349062 4.381999 14
4.0087032 1.7186824 4.3468194 14
4.965343 1.8150816 4.221879 13
4.9590349 1.9598429 4.225544 14
3.7100508 2.9532747 9.0866213 14
4.5991898 3.0719118 8.9474897 14
-1.4439409 0.2145744 -6.3344622 8
-1.5997841 0.50599837 -6.3185711 9
-1.534126 0.51119137 -6.3219786 9
-1.6656702 1.1157392 -6.330205 11
-1.4521229 1.1291513 -6.3631449 11
-1.7213352 1.4293559 -6.3835297 12
-1.4803889 1.4406137 -6.4080601 12
-1.1764846 1.4548744 -6.4301376 12
-0.89493942 1.4720361 -6.4698715 12
-1.7392962 1.7387657 -6.3589172 13
-1.6081471 1.7424283 -6.3674393 13
-0.84058309 1.7807915 -6.4801016 13
-1.251138 0.23245218 -6.3469343 8
-1.0510876 0.25101483 -6.3742571 8
-0.86862159 0.26804635 -6.3908749 8
-0.11607552 0.33912784 -6.4102306 8
0.14292908 0.36376327 -6.4431353 8
0.34361506 0.38295349 -6.4675751 8
-1.6387675 0.50231862 -6.2942438 9
-1.4236803 0.52020073 -6.335803 9
-1.1742887 0.54079926 -6.3661842 9
-0.82488775 0.57032847 -6.412796 9
-0.15449882 0.62646842 -6.4173393 9
0.11934805 0.65097916 -6.4463587 9
0.34247708 0.67143106 -6.474102 9
0.67077625 0.70201254 -6.5116673 9
1.5129377 0.78637958 -6.6921902 9
1.8141794 0.81709063 -6.7372208 9
2.1456976 0.85125875 -6.7790594 9
-1.4112356 0.82608569 -6.3342075 10
-1.1087043 0.84819984 -6.3729324 10
-0.82415795 0.86968929 -6.4060583 10
-0.11711383 0.92216587 -6.4215584 10
0.084351301 0.93936795 -6.4467134 10
0.38370919 0.96586943 -6.4853725 10
0.62612903 0.98794091 -6.5168829 10
1.5977018 1.087339 -6.7051582 10
1.8705103 1.1159157 -6.7408028 10
2.1224141 1.1429751 -6.7727165 10
-1.3758266 1.1320508 -6.3535757 11
-0.74951863 1.1739945 -6.4353666 11
-0.18957829 1.2068281 -6.4131956 11
0.055347204 1.2262642 -6.441865 11
0.3483932 1.2510103 -6.4786482 11
1.5653284 1.376794 -6.7222519 11
1.8383243 1.4058325 -6.754611 11
2.1049919 1.4355797 -6.7886963 11
-0.22920942 1.4995761 -6.4227829 12
0.023858786 1.5180568 -6.4507093 12
0.32377839 1.5423744 -6.4891052 12
0.57891762 1.5649656 -6.527132 12
1.5160533 1.6723847 -6.7600813 12
1.8059499 1.7040331 -6.7954569 12
2.0662892 1.7347087 -6.8330231 12
-0.90618849 1.775882 -6.4630671 13
-0.31396127 1.7937484 -6.4313622 13
-0.047160149 1.8111702 -6.4581327 13
0.29157901 1.8368996 -6.5003166 13
0.50566304 1.854254 -6.526144 13
1.4941037 1.9693151 -6.7592993 13
1.7749727 2.0008671 -6.7944546 13
2.0350332 2.0318024 -6.8267488 13
-1.510144 2.0377383 -6.2719822 14
-1.2691259 2.0413625 -6.2809401 14
0.027974844 2.1999011 -5.5695629 14
0.31572962 2.2182469 -5.6062689 14
0.57715595 2.2365465 -5.6350288 14
1.6046236 2.3346436 -5.7550611 14
1.8956478 2.370019 -5.7918959 14
2.0728843 2.3932378 -5.8143759 14
-0.62614822 0.3020094 -3.5899909 8
-0.46572375 0.31616628 -3.7210457 8
0.37835276 0.39457381 -3.8343885 8
0.45629644 0.53431487 -3.8404706 8.666667
1.1150894 0.56274188 -3.93385 8.5
1.5340381 0.63223773 -3.8121774 8.666667
2.3314111 0.7807675 -4.0392885 9
-0.65505934 0.60835743 -3.5938032 9.5
-0.51324415 0.6232183 -3.7223022 9.5
0.42664266 0.7972613 -3.8373239 10
1.4890702 0.88162625 -3.8066094 10
2.3109806 0.97704011 -4.0482254 10
-0.67887664 0.91532803 -3.593796 11
-0.53807497 0.93267787 -3.7220876 11
0.3809886 1.0941551 -3.8471119 11.5
1.4553299 1.1633887 -3.7993071 11.5
1.6112225 1.1991761 -3.9878099 11.5
2.2741148 1.2703493 -4.0520744 11.5
-0.70491576 1.1218348 -3.5944974 12
-0.54978418 1.2476215 -3.7316954 12.5
0.41158009 1.4005828 -3.8618462 13
-0.75028872 1.5422187 -3.602524 13
-0.60702109 1.5659301 -3.7387645 13
0.33173943 1.6000917 -3.8531559 13
1.3940959 1.7433356 -3.8132451 13.5
1.5479459 1.7969354 -3.9997418 13.5
2.2155774 1.8689767 -4.0455332 13.5
-0.77102661 1.7545495 -3.606725 14
-0.59249949 1.7786138 -3.7387769 14
0.27719307 1.8057303 -3.8617127 14
2.6862142 0.71776652 -3.9529002 8.5
2.8726437 0.83527184 -3.9796765 9
2.3986905 0.97691166 -3.9124901 10
2.6208558 1.0026883 -3.9443028 10
2.3613467 1.2637111 -3.919656 11.5
2.5710361 1.2896502 -3.9440405 11.5
3.0382223 1.6575235 -4.016448 13
2.3056583 1.8516917 -3.9263794 13.5
2.5236037 1.9179612 -3.9562442 13.666667
2.7925432 1.892134 -3.9886591 13.333333
3.0060842 1.8584276 -4.016757 13
3.1016784 2.0839806 -4.0370216 14
-2.2238305 0.59768277 -2.8130424 10
-2.2943113 0.81132686 -2.8018548 11
-2.739125 1.0261989 -2.6853802 12
-2.312186 1.1017454 -2.7894709 12.333333
-2.7665751 1.2561924 -2.6923373 13
-2.3749979 1.2526577 -2.8051674 13
-2.8146408 1.7207997 -2.6999547 14
-2.4108827 1.6908559 -2.7495921 14
-7.7917433 1.5232782 -1.4558403 13
-7.813056 1.8906891 -1.4564691 14
-7.720295 1.1495852 -1.2237306 12
-7.7721786 1.5154783 -1.2781413 13
-7.6917772 1.1417488 -0.92426419 12
-7.7362576 1.5035093 -0.99498725 13
-7.6967926 1.4921563 -0.68787217 13
-7.6597109 1.482558 -0.3865149 13
4.7141447 1.6408074 -2.115195 12
4.6888599 1.8790358 -2.0928276 13.5
-7.6212463 1.4746656 -0.089862943 13
-7.585144 1.4684558 0.20051384 13
0.6957562 0.55122167 -0.70138407 9
0.66989028 0.86015201 -0.69106388 11.5
0.62054348 0.9953959 -0.63651586 13
0.59403288 0.50668758 -0.36718059 8.8000002
0.63718271 0.54296666 -0.50844145 9
0.25720978 0.77953321 -0.37808073 11
0.54607999 0.84090632 -0.36882162 11.714286
0.61013591 0.85842395 -0.49316978 11.75
0.24069476 0.97179592 -0.3800025 13
0.54947364 1.0573276 -0.44528794 14
0.61298931 0.98792845 -0.59085131 13
-6.3773651 1.9583522 1.183761 14
5.0053544 1.3742542 -0.33814597 11
4.9690533 1.5563002 -0.3635776 12.5
4.9431992 1.7378343 -0.3486228 14
-6.347537 1.9579473 1.5101982 14
3.4273031 0.8436023 0.37922275 9.5
3.4191012 1.0121353 0.443416 12
-6.302927 1.9575566 1.8153566 14
3.4984179 0.72615588 0.75890714 8
-6.2713404 1.9616988 2.0981157 14
0.32916391 0.63219428 1.563946 10.2
3.4727063 0.86519837 0.80966252 10
0.3261652 0.74639237 1.5700752 12
3.4527047 1.0384707 0.8275786 13
-6.2330627 1.9703333 2.4473228 14
3.5210216 0.88833648 1.2758267 10.428572
3.5026841 1.0280933 1.2176541 13
0.46977413 0.60465842 2.0429666 8.6999998
3.5487521 0.87685859 1.4640701 10
0.46117556 0.7691412 2.0472443 11
3.5304163 1.0310267 1.454523 13
3.5918143 0.92338002 1.8501532 10.5
3.5754695 1.0579138 1.8442802 13
0.55519617 0.58170676 2.6889131 8
0.53185022 0.75002897 2.6427605 10
0.56239164 0.58798361 2.7903504 8.5
0.54769969 0.76231551 2.7638774 10
0.5956347 0.61016488 3.119679 8.5
0.61913419 0.49639919 3.1208363 7
0.57842743 0.80297947 3.1157808 10
5.3049431 1.6781508 2.4531398 13
0.64308977 0.62365454 3.4780631 8
5.3488321 1.4542433 2.5833967 11
5.329051 1.6763816 2.6305327 12.8
5.3120022 1.8267939 2.6708078 14
-3.273061 0.52168918 4.7453613 8.3999996
-3.1068156 0.65591294 4.70821 9
-3.4357083 0.87678266 4.7642941 10
-3.2245905 0.87306964 4.7350817 10
-3.4740841 1.1070111 4.7826533 11
-3.3165944 1.0988756 4.7591314 11
-3.4805272 1.3373375 4.7835832 12
-3.328685 1.32465 4.7625818 12
-6.8738031 1.6502072 5.3934193 12
-6.7359772 0.62945408 5.5955753 9
-6.7770586 0.97213018 5.6142874 10
-6.8301659 1.3245962 5.6737289 11
-6.8712692 1.6696068 5.5963984 12
0.83784008 0.69549221 4.8138914 8
1.2219133 0.83779359 4.7501822 9
1.5679843 0.74528348 4.6455235 8
1.9461541 0.88772464 4.6433487 10
2.1965995 0.83729565 4.5965014 9.333333
2.4691274 0.87962103 4.5589008 9.5
2.9816065 0.87771446 4.4787073 9
-0.077144861 0.91563785 4.9162245 10
0.22499025 0.8535943 4.8708439 9.5
0.3901087 0.95805156 4.858592 10
0.72390246 0.85088098 4.8108768 9.333333
1.2689315 1.0013841 4.7072105 10
1.5133642 1.0896378 4.6394062 10.4
1.906399 1.0997665 4.6396389 11.333333
2.2161243 1.1730884 4.5841966 11.5
2.5129173 1.1465882 4.5486355 11.333333
2.7192898 1.2032605 4.5207109 11.333333
-1.2128801 1.0794859 5.0636377 11
-0.7764852 1.1736944 4.998075 11
-0.10523367 1.0597575 4.9342866 11
0.16099763 1.2534044 4.897624 11.5
0.36890924 1.2359983 4.8688021 11.333333
0.76166189 1.1863487 4.8210249 11
1.1935142 1.2719452 4.7333698 11.75
1.4908543 1.3168374 4.6587839 12.2
1.921693 1.3147855 4.6145601 13
2.2048223 1.3338909 4.5808334 13
2.4964983 1.3602868 4.5490093 13
5.0531454 1.7043568 3.8327353 12.5
-1.2313254 1.4223232 5.0431585 12
-0.86112285 1.4732368 4.9928045 12.5
-0.69403911 1.4585422 4.9711819 12.5
-0.1253624 1.4158852 4.9079294 12.5
0.16526556 1.4639549 4.8609781 13
0.29908073 1.4552076 4.8451681 13
5.0315838 1.9047856 3.8304551 14
-1.2655368 1.5966862 5.0337448 13
-0.89029765 1.5568968 4.9911494 13
1.2008049 0.72331989 4.7890968 8
1.8082945 0.87870944 4.6893969 9
2.2594724 0.91607702 4.6192122 10
2.5114923 0.83466291 4.6014566 8.5
2.7371657 0.96544814 4.5890155 10
3.0158639 0.99265701 4.5265837 10
3.6867182 0.98765123 4.4390855 9.25
3.9979498 1.020802 4.3946285 9.1999998
4.3052468 0.95393378 4.3799591 8.333333
4.5230117 0.99929988 4.3541355 8.5
1.847702 1.1731498 4.6775923 11
2.5239391 1.2563537 4.5551043 12
2.7740707 1.1743211 4.5176449 11.333333
3.0173001 1.2612526 4.5055037 11.5
3.3321838 1.2869072 4.4730783 11.333333
3.654439 1.297786 4.4356785 11
4.0081263 1.323782 4.3900023 11
4.3256125 1.2774802 4.3438077 10.5
4.4883747 1.295754 4.3213096 10.5
1.084312 1.3165178 4.8146071 12
1.2079465 1.1997992 4.8171473 11
1.7183464 1.2041662 4.7003841 11
1.7368102 1.3935237 4.6963415 12.666667
2.5918257 1.370477 4.5390749 13
2.6954098 1.3847485 4.5367212 13
2.9979248 1.4223202 4.4942331 13
3.3222413 1.4132639 4.4519687 12.5
3.5647433 1.5140165 4.4280238 13
3.953536 1.5856816 4.3686862 13
4.2884264 1.5297666 4.335062 12
4.4608226 1.5650086 4.312304 12
4.75881 1.6954511 4.257772 12.5
4.9609661 1.7431874 4.2317562 12.5
4.7357416 1.8973972 4.2466946 14
4.9361877 1.9523125 4.2226572 14
3.763015 2.9573951 9.0707254 14
3.8964028 2.973994 9.0509186 14
4.1987257 3.0144784 9.0074768 14
4.4894056 3.0551031 8.9621725 14
-0.64079666 0.28934619 -6.441061 8.0050001
-0.66825652 0.58403444 -6.4367352 9.0050001
-2.8462746 2.0249414 -6.1325235 14.0115
-2.0759318 2.1218038 -5.1592054 14.011
-0.62819695 2.1865554 -5.5597658 14.0055
-2.3692877 2.0749767 -4.8641281 14.0125
-2.2846749 2.0941014 -4.9801779 14.012
-0.35932326 0.32583117 -3.7759678 8.0080004
0.15716863 0.47496825 -3.8407161 8.5054998
0.97129667 0.64714539 -3.9100063 9.0015001
-0.11795497 0.95872062 -3.7784941 11.00675
0.025970221 0.9709481 -3.826452 11.006
-0.1840508 1.3773646 -3.8384063 13.00675
-5.0637579 1.1134386 -3.027529 12.024
-6.5692415 1.5160173 -3.0581958 13.02625
-1.6219506 1.7908915 -3.6126587 14.013
1.6649532 0.61556208 -3.9098051 8.6780005
1.9106345 0.54257441 -4.00214 8.1767502
2.2109098 0.63734198 -4.0194407 8.5085001
2.5333376 0.60524285 -3.8910258 8.1735001
1.6401606 0.8991611 -3.8614638 10.178
1.5494108 1.6864381 -3.9527628 13.178
4.0401726 2.0297604 -4.0494938 13.1655
-2.3865697 1.7549523 -3.1367247 14.017
-2.4150393 1.7910049 -3.3319538 14.0165
-4.7804527 1.9349763 -2.6391871 14.0245
-4.710618 1.9408643 -2.7596977 14.024
-2.4941437 0.80295247 -2.6978781 11.019
-2.2064426 0.60102189 -2.8647735 10.0175
-3.8671739 1.045275 -2.5651309 12.023
-3.5889828 1.0398567 -2.5987365 12.02225
-3.3216207 1.0350294 -2.6271136 12.0215
-2.7409432 1.0265596 -2.6778414 12.019751
-2.5274003 1.0256768 -2.7109077 12.019
-3.9060061 1.3054012 -2.5776026 13.023
-3.6278908 1.2927861 -2.6121743 13.02225
-3.2767088 1.2778046 -2.6516635 13.02125
-2.6997659 1.2550793 -2.6991112 13.0195
-2.5585854 1.2515116 -2.7217996 13.019
3.0712767 1.8308508 -3.839483 13.17
4.0540028 2.0896955 -3.8098934 13.665
-4.0238457 1.83287 -2.5515783 14.023251
-3.6522877 1.7964826 -2.6001656 14.02225
-3.3032243 1.7638335 -2.6409576 14.02125
-2.9009445 1.7292526 -2.6881421 14.02
-2.4798176 1.7133255 -2.8374631 14.01825
-4.8786612 1.9350245 -2.5337632 14.025
8.9246769 3.31269 -4.8211622 14.1515
4.5433331 1.8306055 -3.6110003 13.1625
4.2179623 2.0167255 -3.6091349 13.363901
4.5121937 2.1357188 -3.4267304 13.828834
-7.7414103 1.1604321 -1.5643489 12.0315
9.2316284 3.3334067 -4.3311644 14.14975
-6.7998695 0.45004052 -1.1068022 10.032
4.5665593 1.9326186 -3.0125029 13.161
-7.3652735 0.78408599 -1.0919697 11.0325
4.5411038 2.0775676 -3.1253765 13.828
-5.5898466 1.9179648 -1.3126714 14.03
9.4006987 3.3351326 -3.9507658 14.148501
-7.322216 0.77919728 -0.72432303 11.0335
-6.8453846 0.55711961 -0.83462691 10.366166
4.6072474 1.8879626 -2.719312 13.16
4.5883427 2.0675507 -2.7231238 14.16
-6.0407648 1.9601626 -0.93129992 14.03175
-5.5595531 1.90216 -1.1516151 14.0305
2.305779 0.64699411 -1.826369 8.6742496
2.6577897 0.62293428 -1.9653389 8.1715002
4.680336 1.8390064 -2.3513398 13.158501
4.6440754 1.9980502 -2.32601 14.158501
-6.100235 1.9467766 -0.49044442 14.03325
-6.0676994 1.9521499 -0.70984864 14.0325
2.350168 0.64654231 -1.5591187 8.6737499
4.7220545 1.8465588 -1.8698637 13.656499
-6.1813669 1.9457483 -0.13406181 14.0345
9.1230984 3.4229255 -2.6821148 14.1455
0.74261534 0.58762711 -0.84564424 9.0105
0.66890299 0.9640733 -0.74449778 12.511499
4.777101 1.8068831 -1.5620267 13.654916
-6.3147268 1.9528649 0.43822587 14.0365
-6.2113829 1.9402845 0.23100817 14.035749
-3.0013516 0.31751591 0.17796683 9.0327501
0.5007751 0.63265967 -0.35516989 9.890625
0.6448549 0.55986595 -0.52124882 9.0132999
0.41807413 0.92472106 -0.3666234 12.616051
0.61245394 0.92314374 -0.52402949 12.413301
4.8223772 1.7777689 -1.1653457 13.819416
-6.2824879 1.9447372 0.73637605 14.037501
10.156941 3.7109768 -2.0072727 14.142
-2.1152871 0.36360142 0.54044163 9.0334997
0.1520946 0.65298033 0.14159691 10.0225
0.83723474 0.47685814 0.12884402 8.3500004
3.0282259 0.88416433 -0.29835522 10.412875
3.1246753 0.90279472 -0.24203241 10.536313
4.9387321 1.1239154 -0.55058694 10.149
4.9465265 1.3987606 -0.63345122 11.524312
4.8747187 1.7888222 -0.84959269 14.15075
-6.2694292 1.9419621 1.0307608 14.0385
10.16089 3.6978717 -1.8386619 14.1415
10.390607 3.7606976 -1.5961244 14.1405
0.19976842 0.61942506 0.54735041 10.103347
0.86236942 0.49451059 0.36815727 8.5189581
3.1277959 0.67920196 0.047437787 8.1595001
3.2943804 0.90441084 -0.064119697 10.372249
4.1265001 0.90818572 -0.009863615 9.4831667
4.9740257 1.3728566 -0.39953446 11.481
4.9547329 1.7242118 -0.2148447 14.14625
10.607775 3.8212719 -1.3384488 14.1395
0.28407168 0.52031326 0.79798913 9.2290001
0.99804747 0.50591367 0.74829221 8.5781116
1.2822567 0.58973813 0.86741436 9.354167
2.3807015 0.70307302 0.52697194 9.9473896
2.4680758 0.72559094 0.55583298 10.402412
2.9126997 0.65723103 0.34520245 8.1599998
3.3865931 0.80923432 0.31419182 9.2838697
4.1563797 0.88146198 0.066005111 9.1490002
4.8745794 1.663823 0.069343448 14.144501
10.912457 3.903686 -0.84694743 14.13775
0.30920672 0.61324769 1.322329 10.202958
0.82439804 0.46620628 1.2953225 8.0342503
1.187923 0.52318007 1.0472742 8.4259005
1.3003221 0.62385237 1.0711979 10.525
3.2396722 0.78556925 0.89795339 9.1466665
3.4224269 0.82494676 0.82625824 9.7014732
0.35683107 0.62387472 1.7024627 10.208806
0.95113921 0.48042518 1.5058757 8.0383749
0.97777891 0.48524278 1.6422374 8.0415001
3.2740989 0.75070876 1.1289396 8.5166254
3.449657 0.92906034 1.1822011 11.38895
-6.1882591 1.980176 2.7383018 14.0445
11.234072 3.9983208 -0.25001156 14.13575
0.39923811 0.64179134 2.1316681 10.222782
1.0141177 0.49280131 1.8480275 8.0465002
3.2634625 0.73213702 1.6965872 8.1274996
3.5546718 0.92985368 1.5798937 11.005479
5.1387119 1.6875083 1.234219 14.1335
-7.0146036 1.8096737 3.1353397 14.04525
-6.1347218 1.9993445 3.1716528 14.046
11.2574 3.9965971 0.16501975 14.1345
0.21276236 0.58286548 2.5539179 9.4535007
0.49903941 0.50735068 2.5350914 8.4549999
1.502068 0.55248576 2.4694836 8.0664997
1.532619 0.59149313 2.4586475 8.0670004
3.333961 0.81210148 2.0500379 9.2920351
3.5640109 0.93025255 1.9410695 10.723249
0.098120928 0.81552094 2.4032068 12.05125
-6.0971127 2.0153265 3.4598522 14.047
11.511563 4.0858126 0.63340431 14.133
0.54469573 0.5940848 2.8490186 9.3369446
1.5482519 0.58499855 2.8266041 8.4051666
1.574452 0.61151302 2.722924 8.7379999
3.315177 0.83567655 2.2694399 9.5435715
3.6545377 1.0529568 2.4714231 11.615126
5.2748523 1.7639762 2.1117051 14.1255
-5.9533243 2.0288835 3.8739953 14.0485
11.647643 4.1366696 0.87576485 14.13225
-2.6693213 0.33001482 3.8656933 8.5529175
-1.7426796 0.31310642 3.7946227 8.0550003
0.55913901 0.60779786 3.2701337 9.2133999
1.0727282 0.542992 3.3248463 8.0690002
2.7131784 0.80021733 2.9942675 9.4960499
3.7126737 0.92444682 2.7519064 9.486969
5.2959051 1.6370692 2.4899726 12.788999
5.2952757 1.7976025 2.4347572 14.1228
-5.8413868 2.0541096 4.2963309 14.05
11.810507 4.202611 1.3830572 14.13075
-2.6315711 0.43370914 4.0648365 9.0539999
0.62385869 0.74833471 3.5980055 9.9000006
1.086804 0.54783601 3.4276509 8.0699997
2.7746081 0.74569261 3.2171404 8.428833
3.7632425 0.96612811 3.1487637 9.641633
5.3570604 1.4624593 2.670728 11.121
5.3378572 1.8617219 2.8869777 14.119375
-5.6585369 2.062767 4.6153021 14.05125
11.914467 4.2490892 1.7298417 14.12975
3.7870979 0.90526575 3.369808 9.1064997
-5.1620226 0.62480891 5.02915 10.053
-4.68748 0.63052839 4.9549809 10.0535
-4.2630053 0.63573933 4.8869419 10.054
-3.8915937 0.64070082 4.83112 10.0545
-3.5679677 0.75925767 4.781167 10.555
-5.1990538 0.90618634 5.0292692 11.053
-4.7378263 0.89659041 4.9628019 11.0535
-4.3513594 1.0174508 4.9085979 11.554
-3.9751456 1.0037839 4.8525486 11.5545
-3.6590884 1.1083617 4.8075104 12.055
5.3830252 1.9052197 3.2666695 13.950168
-5.2723722 1.1951016 5.045907 12.053
-4.8066883 1.1697006 4.9792342 12.0535
-3.6942489 1.3452268 4.8105097 13.055
-5.6170568 2.0829179 4.8329201 14.052
-5.4643593 2.0727832 4.9239106 14.0525
-5.078826 2.0269599 4.9823895 14.05325
11.938622 4.2658396 1.9939653 14.129
5.1454668 1.6572555 3.812371 12.11225
-3.1111472 1.3125806 4.8594799 13.0565
5.1277876 1.8617011 3.8089788 13.61225
5.4052887 1.9378599 3.6266751 13.739563
-4.1835327 1.4434848 5.3719835 13.056
-2.8852212 1.6110871 4.8179541 13.557
-2.4730785 1.5834265 4.9058781 13.5585
-6.744482 1.6604513 5.7071571 13.053
-5.728735 1.5727012 5.5777159 13.054
