# .PCD v0.7 - Point Cloud Data file format
VERSION 0.7
FIELDS x y z intensity
SIZE 4 4 4 4
TYPE F F F F
COUNT 1 1 1 1
WIDTH 1288
HEIGHT 1
VIEWPOINT 0 0 0 1 0 0 0
POINTS 1288
DATA ascii
-2.8848705 1.1372869 5.1105304 10
-2.8920221 1.3536429 5.098412 11
-2.0483108 1.3127295 4.9921694 11
-3.0552402 1.5827923 5.0961132 12
-3.0731769 2.0307472 5.0749807 13
0.57325506 0.72589171 -6.9264069 9
0.81338334 0.74260139 -6.9741344 9
0.5095998 0.98549616 -6.9153199 10
0.71724582 1.0003667 -6.950037 10
0.080652356 1.4882612 -6.8852515 12
0.68298453 1.3988985 -6.9853439 11.5
0.12688863 1.7600613 -6.8947339 13
0.4607752 1.7862821 -6.9607573 13
0.65563905 1.8029032 -6.9980617 13
-2.9776039 0.24771592 -6.2351871 8
-2.6269259 0.26770088 -6.3116331 8
-2.4849463 0.27590418 -6.3383837 8
-2.1946664 0.2927753 -6.3975043 8
-1.9919158 0.30459806 -6.4449649 8
-1.5631012 0.33072597 -6.442317 8
-1.3077387 0.34606889 -6.4921803 8
-1.004475 0.36450893 -6.550508 8
-0.79176462 0.37758589 -6.5864496 8
-2.9929724 0.52620316 -6.2335114 9
-2.659327 0.5415439 -6.3117418 9
-2.5067544 0.54880893 -6.3476691 9
-2.2200136 0.5625326 -6.3998456 9
-2.0116091 0.57310665 -6.4513359 9
-1.5881113 0.59285945 -6.4452925 9
-1.3254107 0.60695368 -6.4940066 9
-1.0398029 0.62277126 -6.5439024 9
-0.75743639 0.63899076 -6.5951562 9
-3.0130877 0.80606461 -6.2253714 10
-2.6852055 0.81886399 -6.32793 10
-2.5270004 0.8242653 -6.3541846 10
-2.2312183 0.83511156 -6.4038134 10
-1.6062988 0.85748333 -6.4480658 10
-1.3433067 0.86985773 -6.4966087 10
-1.0389062 0.88516557 -6.5511813 10
-0.76316178 0.89996219 -6.6020136 10
0.12594151 0.95858467 -6.8363414 10
-3.142765 1.0858707 -6.2442427 11
-2.6888633 1.0949636 -6.3303957 11
-2.4508071 1.1013536 -6.3798413 11
-2.1578827 1.1095653 -6.4333053 11
-1.6312355 1.2554328 -6.4622531 11.5
-1.3615597 1.2654946 -6.5118651 11.5
-1.0670625 1.2780688 -6.5657306 11.5
-0.80097187 1.290888 -6.6156268 11.5
0.11655641 1.2212861 -6.857234 11
-3.0828538 1.3771338 -6.3160315 12
-2.7169256 1.3762558 -6.3501563 12
-2.475884 1.3796263 -6.3950453 12
-2.179656 1.3852577 -6.4519868 12
-1.6660675 1.6587079 -6.466495 13
-1.386804 1.6650686 -6.5101767 13
-1.0896095 1.6756544 -6.5654755 13
-0.82244003 1.6880364 -6.6224527 13
0.011830688 1.7511179 -6.8684888 13
-3.1074357 1.6621103 -6.2922077 13
-2.7327476 1.6582999 -6.3481903 13
-2.493494 1.6594739 -6.396142 13
-2.1877837 1.6623805 -6.4556279 13
-2.1090131 1.9414859 -6.4745221 14
-0.79056823 1.9582732 -6.6377091 14
-0.047359347 2.0199444 -6.8733511 14
-2.4994912 2.2083192 -6.3300223 14
-2.2172022 2.20523 -6.3846941 14
-1.700128 2.2061331 -6.4824767 14
-1.3315848 2.2114944 -6.5478725 14
-1.0198451 2.220598 -6.6078253 14
-0.86863983 2.226155 -6.6361375 14
0.049899817 2.2791657 -6.8119664 14
0.43106645 2.3099768 -6.8836694 14
0.63654768 2.3285556 -6.9203067 14
-4.5319247 0.16161293 -5.9269791 8
-4.2308598 0.178011 -5.9820395 8
-4.5488787 0.46413475 -5.9278684 9
-4.2259264 0.47599018 -5.9913559 9
-4.5835052 0.76849777 -5.9257593 10
-4.245707 0.77502638 -5.9954972 10
-4.6189175 1.0709813 -5.9104972 11
-4.2676144 1.0706829 -5.9699688 11
-4.8103576 1.3854911 -5.9213753 12
-4.8397489 1.7020261 -5.9351215 13
-4.7697845 2.0076387 -5.9096551 14
-1.8327569 0.32851171 -4.7029886 8
-1.8507613 0.64732718 -4.7012286 9.5
-1.8931981 0.96585107 -4.6968365 11
-1.9464091 1.2971897 -4.7535319 12.5
-1.9869984 1.8488343 -4.7456203 14
1.1042681 0.68440628 -4.2753377 9
1.0939692 0.93776047 -4.2725515 10.5
1.0747497 1.1939001 -4.288331 12
1.0494679 1.5415089 -4.2983947 13
1.0370177 1.7140281 -4.2904024 14
-2.6687078 0.39084649 -3.5901303 8.5
-2.1011696 0.50971556 -3.6230855 9
-1.7319041 0.43457544 -3.796206 8.5
-1.6852087 0.34453088 -3.8769293 8
-0.71206343 0.48726252 -3.9341931 8.5
0.074626327 0.61665833 -4.0851545 9
0.28178805 0.54476178 -3.992311 8.5
1.147454 0.68458605 -4.1813755 9
1.5061789 0.70934117 -4.1847167 9
1.7247641 0.61458564 -4.2283611 8.333333
2.0245502 0.63588268 -4.2838216 8.333333
2.3073115 0.77133822 -4.2515216 9
-2.6853766 0.68916339 -3.5766664 10
-2.1262436 0.69703317 -3.6264706 10
-1.7466446 0.71122503 -3.8024864 10
-1.6956555 0.7150017 -3.8601317 10
-0.73406065 0.8292098 -3.9328675 10.5
0.049316049 0.95129371 -4.0932212 11
0.22870219 0.86741632 -3.9906039 10.5
0.36844468 0.95660901 -4.0101557 11
1.2101803 0.93431211 -4.1337352 10.5
1.3495907 0.94571459 -4.1559501 10.5
1.6550893 0.97340757 -4.2178283 10.5
1.9499944 1.0013204 -4.2714753 10.5
2.3149962 0.94578892 -4.2579594 10
-2.7105012 0.93734127 -3.5699825 11.25
-1.7680241 0.98834205 -3.8036509 11.5
-1.7285107 0.99590689 -3.8919163 11.5
-0.7683872 1.0889376 -3.9506183 12
0.036681771 1.1207492 -4.0983644 12
0.24636388 1.196949 -3.9983239 12.5
0.35645604 1.1206691 -4.0142589 12
1.1857845 1.1824167 -4.1488032 12
1.3430291 1.1964092 -4.1713438 12
1.638346 1.2265661 -4.2252159 12
2.0166385 1.2501004 -4.1508512 12
2.2667427 1.1721754 -4.2690759 11.333333
2.5158343 1.2703552 -4.3802037 11.666667
2.7690625 1.3671396 -4.4425316 12
-2.7390108 1.093513 -3.6242685 12
-0.80354249 1.3509648 -3.9424124 13
0.013195276 1.4635899 -4.1006165 13
0.2301656 1.449224 -4.0098014 13
1.1520526 1.5179014 -4.151998 13
1.3192275 1.5350955 -4.1783438 13
1.6142826 1.5710006 -4.2350321 13
1.9921733 1.5928283 -4.1612515 13
2.2990398 1.6272686 -4.1601496 13
2.5937328 1.7047803 -4.4209161 13
-2.7588024 1.5001175 -3.6009002 13
-1.8136402 1.5862706 -3.8080182 13.666667
-1.7607242 1.5673068 -3.89855 13.5
-0.82504404 1.6157911 -3.9408388 14
0.21689546 1.6180661 -4.0147738 14
1.1395028 1.6880267 -4.1562657 14
1.3163998 1.7060308 -4.1787167 14
1.6022066 1.7441013 -4.2360687 14
1.9055178 1.7587626 -4.1715555 14
2.2100058 1.7889552 -4.1482778 14
2.5498686 1.8983166 -4.4215274 14
-2.7707257 1.707509 -3.609365 14
-1.8474284 0.42805845 -3.5635757 8.5
2.4532738 0.61082441 -4.0996256 8
-1.873547 0.69801736 -3.5677819 10
-1.8900651 0.96913296 -3.5733137 11.5
-1.9190203 1.4304671 -3.5825763 13
-1.9327518 1.6171196 -3.5844851 14
-4.752265 0.54512841 -2.4032407 9.5
-4.7036304 0.89255363 -2.4156175 11
-4.7733445 1.1301769 -2.4163623 12
-4.7954359 1.369066 -2.4235582 13
-4.7962041 1.7265551 -2.4281359 14
-8.9841795 1.8287759 -2.0548763 13
-6.1813726 2.0763419 -2.3228409 14
-6.1337667 2.0763736 -2.437398 14
-8.9301891 1.8162835 -1.7800751 13
-6.252717 2.0762122 -2.1366076 14
-8.8724079 1.8041394 -1.4731107 13
-6.3519907 2.0751376 -1.8224101 14
-8.851572 2.1619484 -1.3068094 14
-8.8208714 1.7944205 -1.1911845 13
-8.8198709 2.1548152 -1.1755428 14
-8.6940956 2.1355824 -1.2064919 14
-8.7632465 1.7854016 -0.88700062 13
-8.7036924 1.777597 -0.58952707 13
-8.6509495 1.7723858 -0.29622263 13
-0.30078852 0.56277889 -0.82970268 9.25
-0.31211722 0.85154021 -0.85608226 12.428572
-8.59589 1.7682607 -0.0080937743 13
-8.575635 1.7671247 0.095976651 13
-0.3477627 0.55740714 -0.61249083 9.25
-0.54692245 0.94525266 -0.4344402 14
-0.36834872 0.83932829 -0.61418313 12.555555
-8.539897 1.766016 0.29222888 13
-0.46502221 0.58700484 -0.40320754 9.5
-0.49317133 0.79487932 -0.4148286 12
-8.4820824 1.7650502 0.5888713 13
-8.4253378 1.7663298 0.89126599 13
-7.1748476 2.2036178 0.82491875 14
3.9745688 1.1732037 -0.2425577 11
3.9578881 1.4300241 -0.25966936 13.5
-8.37012 1.7693558 1.1910667 13
-7.1402464 2.2037969 1.0201466 14
4.111515 0.95775843 -0.0013588071 9.666667
4.1252542 1.2246189 0.037502646 11.4
4.104207 1.4663823 0.026967585 13.5
-8.259654 1.0988212 1.5421417 11
-8.2726536 1.4363928 1.5937726 12
-8.3160534 1.7744842 1.4887688 13
-7.0851603 2.2063067 1.3216245 14
2.5747685 0.83177185 0.62182856 10.5
2.565413 0.97292817 0.61944348 13.5
4.149672 1.3152058 0.21338612 12
-8.1976433 1.1043172 1.7774742 11
-8.240201 1.4410977 1.7737477 12
-8.2668161 1.780123 1.7511697 13
-7.0218248 2.2127116 1.6694832 14
2.702564 0.81847477 1.2511804 9.5
-0.49126208 0.64696401 1.7241526 8.5
2.757905 0.8522228 1.5538343 9.5
-0.50722742 0.79254401 1.7169189 10
2.7463627 1.0293469 1.5616961 12
-0.4182303 0.62340552 2.075511 8
-0.24784696 0.61134714 2.9625959 7.5
-0.25573909 0.81605864 3.0025206 9
4.7227325 1.3821778 3.1115634 11
4.7228975 1.540313 3.1326554 12
4.7597413 1.085685 3.1992517 9
4.7361345 1.3144075 3.1858959 10.5
4.3476224 1.6541634 3.3921666 12
4.7385702 1.5516245 3.2017236 12
4.3410091 1.8853555 3.3833153 13.5
4.4066534 1.7229011 3.7455099 12
4.4103642 1.8921092 3.7553699 13
4.3931527 2.0538187 3.7442541 14
-0.40796459 0.77364856 4.6524725 8
-0.24666941 0.77829039 4.6058073 8
0.44344592 0.8088944 4.579844 9
0.68033695 0.78010535 4.4392986 8.5
0.91063929 0.78072 4.404953 8.333333
1.2261479 0.8459577 4.4192605 9
1.5991964 0.86698002 4.3517418 9
1.8286836 0.81505251 4.2823625 8
2.1669297 0.90298426 4.250421 9
2.2805104 0.91224372 4.2507715 9
2.7010345 0.88311148 4.1308718 8.1428576
3.0450435 0.89993769 4.1069417 8.25
3.3790936 0.92624271 4.0926933 8.5
3.5974498 0.94179463 4.0233412 8.5
-3.0130105 0.75682849 4.8582354 8.333333
-1.127195 1.0894663 4.7596841 10
-0.51002192 1.0038586 4.6342478 9.5
-0.25589311 1.005813 4.5855441 9.5
-0.063484311 1.0077373 4.5470176 9.5
0.28568667 1.0162263 4.5422745 10
0.63942248 1.0067539 4.4743104 10.4
0.93778884 1.0090456 4.4318204 10.333333
1.1647828 1.0433321 4.4113646 10.5
1.4692907 1.059691 4.3703942 10.5
1.7939444 1.0911019 4.3119321 10.6
2.0792675 1.164053 4.2632928 11
2.3111198 1.1150708 4.2325473 10.5
2.6589043 1.1422433 4.1641197 10.5
3.0301814 1.1753671 4.0937891 10.5
3.3421912 1.2070825 4.0456891 10.5
3.5877647 1.2305741 3.9804156 10.5
-3.0383286 1.1080725 4.8344188 10
-0.57568431 1.3536835 4.6599879 11
-0.34057367 1.2443743 4.6386104 11
0.033536196 1.2398713 4.5690699 11
0.68401957 1.4100484 4.4163709 12.5
0.89256263 1.4440651 4.4554935 12.5
1.2426118 1.4491487 4.405612 12.5
1.553777 1.4921241 4.3419499 12.666667
1.7725065 1.459084 4.3091602 12.333333
2.0324244 1.4970928 4.2525301 12.5
2.3918498 1.5447109 4.1799393 12.666667
2.6566029 1.5204129 4.1372604 12.333333
2.9124677 1.5828581 4.0891385 12.5
3.224597 1.5571265 4.0663199 12
3.5512004 1.5117395 4.0100207 12
3.8854656 1.4943528 3.9339101 12
4.1964025 1.5400827 3.8805752 12
-3.0744452 1.4291918 4.8137908 11.5
-1.1175903 1.6073534 4.7427416 12
-0.5484482 1.6454823 4.6268525 12.5
-0.27614081 1.6018116 4.5787635 12.333333
0.023440719 1.6106939 4.5174727 12.5
0.24196184 1.5284319 4.4854302 12
0.58665031 1.6201525 4.4730539 13.75
0.96940279 1.6594603 4.4284563 14
1.2270527 1.6649346 4.3907208 14
1.5321211 1.6726272 4.3322864 14
1.8168061 1.6883812 4.2839961 14
2.1161766 1.709115 4.2278581 14
2.4057512 1.7359533 4.1729207 14
2.7032266 1.7674599 4.1103439 14
2.8978968 1.793539 4.0762343 14
3.1991324 1.7646449 4.0220208 13.5
3.5867639 1.8253727 3.942059 13.5
3.8669753 1.8744421 3.885849 13.5
4.1884532 1.9369097 3.8274412 13.5
-1.1497031 1.7835588 4.7376037 13
-0.64074433 1.7339363 4.6398563 13
4.3080978 2.0471418 3.814961 14
-3.1089754 1.9699817 4.7771239 13
-2.9277663 0.81016147 5.0768671 8.5
-2.9827299 1.1309021 5.0435123 10
-2.2325325 1.317132 4.9906611 11
-2.0699205 1.3127577 4.9890304 11
-1.136238 1.2661408 4.7854619 11
0.37688649 1.2442546 4.6233945 12
0.49732578 1.3530645 4.5844636 12
-2.9817777 1.4621433 5.0618963 11.5
-2.3491654 1.3214731 4.9982882 11
0.32119763 1.6798553 4.5823989 14
-3.0446191 1.5748365 5.0525379 12
-2.2669377 1.7188392 4.9606562 12
-2.0873222 1.7990646 4.9268875 12.5
-3.0687103 2.0152125 5.0068073 13
-2.2768393 1.9266496 4.9719243 13
-5.9551296 1.6498411 -8.2818899 12.016
-5.8801489 1.6086631 -7.8861833 12.0165
-5.9838123 2.055012 -8.2898493 13.016
-5.9125037 2.0021837 -7.8993077 13.0165
-5.8363938 1.9512944 -7.5213513 13.017
-5.7525992 1.7191277 -7.16295 12.5175
-4.0659747 0.18661985 -6.0409598 8.0159998
-4.7107201 0.15209252 -5.8662024 8.0179996
-4.7286782 0.45693174 -5.8682523 9.0179996
-4.5804443 1.9958358 -5.9513721 14.01725
-4.2373247 1.9771526 -6.0104356 14.016251
-2.5534739 2.1693435 -6.1390071 14.011
-2.5816526 2.0287423 -5.4415917 14.0125
-2.3165154 2.0174668 -5.4749522 14.0115
-4.0903473 2.1030655 -5.0852685 14.018
-1.9676434 1.2928977 -4.7271233 12.512
-1.8420898 0.95324516 -4.5508246 11.012
-1.8784584 1.5534606 -4.3554854 13.0125
-1.9836611 1.8372085 -4.6999478 14.012
-8.4922075 1.8292949 -3.5758843 13.03
0.58177114 0.5655027 -4.2054715 8.5004997
0.9244532 0.50384831 -4.2352233 8.1785002
-1.7929965 0.93132669 -4.2768903 11.0125
-0.66898978 0.57499528 -3.9597044 9.0080004
0.015830755 0.44584936 -4.0815039 8.0039997
0.51587492 0.47768205 -4.1204419 8.0010004
-2.6836782 0.69144607 -3.6512823 10.018
-0.67281485 0.74563807 -3.9432077 10.008
2.4850993 0.95111811 -4.1077175 10.169
-2.4923744 1.0909443 -3.7107997 12.017
0.37375861 1.4800024 -4.1539345 13.0015
-2.8065062 1.5008261 -3.5890017 13.0185
0.36246091 1.6509204 -4.1514182 14.0015
3.1853099 1.5435486 -4.0172877 13.16475
-6.257287 1.5437613 -2.7772942 13.0295
3.2095037 1.9138134 -4.0350604 14.1645
-8.6695175 1.7979496 -2.3323522 13.0335
-7.811285 1.707339 -2.5747099 13.032001
-7.4125185 1.6702726 -2.765677 13.031
-7.1419344 1.6431553 -2.8287153 13.0305
-6.2677994 1.8349392 -2.7785025 14.0295
-4.4567447 0.65987343 -2.4744413 10.0275
-5.0504956 1.1474452 -2.372736 12.029
-5.0741467 1.3943957 -2.380491 13.029
-5.0656219 1.8859024 -2.3963225 14.029
-9.0249681 1.8371375 -2.2431326 13.034
-6.0936584 2.078371 -2.5772171 14.03
-6.8925295 2.1553838 -1.4338818 14.03475
-6.5734739 2.1048291 -1.6421757 14.033751
1.2342982 0.56869721 -1.9620335 8.5100002
1.550238 0.55871749 -2.2763548 8.1735001
1.9939749 0.78874302 -2.2009993 9.7688999
-8.2884874 2.0675972 -1.0059228 14.037
-6.9203167 2.1506267 -1.1452923 14.035749
1.287002 0.62618643 -1.8261242 9.1759996
2.1527824 0.85533285 -1.6402488 10.16525
2.1896391 0.93819499 -1.5898015 11.1645
-7.1058407 2.1735976 -0.51731986 14.038
-7.023097 2.1592243 -0.65127271 14.0375
-6.6626215 2.0942209 -0.878326 14.0365
-0.28171623 0.64572901 -0.98067385 10.018785
2.1930387 0.76912212 -1.4987726 9.4974995
2.2098174 0.75844193 -1.4676592 9.7352142
-0.31115437 0.87630868 -0.88406354 12.769876
-7.0570765 2.162796 -0.29350811 14.03875
-0.69304848 0.5855456 -0.48237437 9.5272503
-0.34572244 0.66472149 -0.67890269 10.355791
1.711973 0.66872394 -0.82663339 9.1672497
-0.6910665 0.89279813 -0.46881574 13.027333
-0.39028919 0.8944695 -0.61319834 13.356833
-7.1699467 2.1859241 0.060031772 14.04
-0.81536782 0.68906832 -0.19864583 10.415923
-0.36837053 0.55972713 -0.34006822 9.2087269
1.7128079 0.68607348 -0.31395084 10.1625
-7.1099358 2.1809084 0.49629766 14.0415
-0.76925576 0.68496007 0.19509289 10.425221
-0.093565226 0.51781791 0.098414123 8.5773182
4.0570574 0.98241782 -0.17826104 9.6389999
3.9843578 1.359648 -0.29523742 12.890124
-3.9381742 0.40029523 1.1863847 8.5450001
-3.7341528 0.40398747 1.0744522 8.5445004
-0.69761193 0.64535165 0.58248127 10.141799
-0.0932796 0.52564573 0.45378745 8.4833889
2.6381679 0.69431221 0.33946303 8.5113125
2.983881 0.75793982 0.27142707 9.1365004
4.0961571 0.93800926 -0.068840027 9.6378746
-7.3971786 0.74940491 1.5055937 10.04475
4.1285586 1.3539214 0.094994813 12.536099
-0.58220136 0.60896653 1.0953869 9.4495993
0.25323403 0.51975942 1.0779228 8.0550003
2.3621583 0.72170836 0.75568217 8.9731541
2.5505309 0.83133185 0.57604891 10.975251
-3.8232932 0.51319951 1.8123004 9.0485001
-0.52495074 0.64567769 1.3749999 9.803813
0.086974144 0.52149379 1.3999374 8.0592499
0.1985929 0.52004081 1.1767879 8.0565004
2.4193282 0.72136331 0.96083373 8.7225494
2.6406498 0.92309761 1.0297432 11.772675
-0.45737517 0.68152255 1.7817845 9.9968748
0.11591041 0.53080314 1.6238205 8.0629997
2.1592953 0.66623068 1.6113815 8.1073332
2.3771076 0.68028378 1.5154657 8.1117496
2.7243991 0.88159925 1.3971441 10.27716
-0.42024016 0.74477869 2.0355701 10.2624
2.50207 0.81870615 1.8400607 9.3591251
2.7195334 0.90910751 1.7749112 9.969286
3.1817145 0.86814749 1.8941362 9.1145
4.4288945 1.6983831 1.5718832 14.122875
-0.5901233 0.72669411 2.7242599 9.5664997
-0.30201936 0.64043909 2.5823455 8.9011936
0.73930395 0.63481569 2.4312658 8.6345558
2.888593 1.0468243 2.2332411 10.775833
3.2347016 0.85046041 1.9952495 8.8638754
4.5274482 1.774447 1.9495201 14.12025
-1.1144038 0.5148533 3.0821674 8.0649996
-0.23290145 0.70122731 2.9646349 9.0708332
0.74552071 0.61021632 2.7052631 8.0799999
1.9604878 0.78607422 2.7402632 9.2624998
2.9581485 1.0036616 2.5867624 9.9070005
4.5874758 1.8428931 2.3067842 14.118
4.6239901 1.8819959 2.488574 14.117
-7.4499474 2.1453083 3.7107935 14.05175
-0.14294767 0.70012534 3.3497484 9.1734009
0.068018556 0.64700282 3.3506358 8.5751677
2.0022445 0.79320741 2.955478 9.0955
3.0261598 0.95283544 2.9187436 9.4386663
4.6819453 1.507488 2.9218879 12.1145
4.6713901 1.918364 2.7796431 13.94875
-7.3374043 2.1804683 4.1848011 14.05325
-0.12989891 0.82075059 3.580724 10.0745
4.7399073 1.15684 3.1395741 9.6134996
4.7687955 1.0897228 3.2555931 9.1129999
4.703783 1.5239997 3.0275619 12.114
4.7345543 1.3866832 3.1392298 11.1135
4.5581861 1.8653996 3.3370271 13.195251
4.7160907 1.9350007 3.1098747 13.61375
-7.7725716 1.9364126 4.570107 13.05375
-7.2987881 2.2146955 4.5216756 14.05425
-2.1665406 0.50619704 4.4633789 8.066
4.3805008 1.7240469 3.7880738 12.109
4.369729 1.8471279 3.5653515 13.110001
-7.7137403 1.9782455 5.0188522 13.055
-7.2417221 2.2490633 4.8592439 14.05525
-7.1974239 2.2719188 5.0798588 14.056
-5.8549528 2.3720052 4.917985 14.05775
-0.30222166 0.78110623 4.7450442 9.0764999
-0.29600143 0.93227386 4.6988769 10.0765
0.12235057 0.94191009 4.6282868 10.079
1.1002629 0.71100396 4.6007318 8.0856667
1.5641968 0.80717957 4.5120211 8.5890007
1.9756532 0.76416236 4.4217701 8.092
2.3365307 0.82002896 4.3365407 8.3447504
2.7004728 0.87505281 4.185452 8.5976248
3.2249599 0.98201925 4.0642185 9.1014996
3.5136266 0.91229832 4.0561786 8.4364996
3.7279201 0.87982947 4.036232 8.1044998
-0.88427508 1.0913363 4.8221002 11.073501
-0.68219304 1.0890377 4.7822418 11.0745
-0.076462388 1.1927643 4.6886253 11.744667
0.11127722 1.0892799 4.6344881 11.079
0.56566477 1.0964684 4.5524187 11.082
1.4480313 1.2609444 4.3785419 12.0885
1.8424878 1.2829654 4.312098 12.0915
2.1027451 1.2993166 4.2578831 12.0935
3.204464 1.2609479 4.0505958 11.1015
3.3680749 1.3758814 4.0229878 11.436001
3.86063 1.490782 3.9392397 12.105749
4.1672182 1.5367701 3.8958783 12.1075
-3.1436653 1.5361588 4.8322577 13.064
-0.86888945 1.5965488 4.8112383 13.07375
-0.54332006 1.6523476 4.7410693 13.5755
-0.18365765 1.7060134 4.665031 14.0775
0.3335771 1.6794121 4.5737634 14.08075
3.7697825 1.8826504 3.9034977 13.772166
4.1936917 1.9376509 3.8280218 13.608
4.3873324 1.8950167 3.801465 13.109
-4.0685763 1.6165073 4.8990402 13.0615
-3.7124176 1.589134 4.9032888 13.0625
-3.3436341 1.5570557 4.8744574 13.0635
-0.88325036 1.7645314 4.7964678 14.07375
-0.74229002 1.7507997 4.7689285 14.0745
4.3772497 2.060441 3.7964144 14.109
-7.6054201 2.0288668 5.5559855 13.0565
-3.808135 2.0814869 4.9514813 14.0625
-3.4673047 2.0226209 4.8762012 14.06325
-3.1727471 1.975395 4.8241935 14.064
-7.1643515 2.2905779 5.2504134 14.0565
-5.7191834 2.3794043 5.0879817 14.0585
-5.2857661 2.3228207 5.1356125 14.059499
0.42033708 0.67172849 4.7341018 8.0810003
0.57718641 0.68020338 4.6931486 8.0819998
1.1462297 0.71505868 4.624629 8.0860004
1.4373382 0.73374861 4.5974045 8.0879993
-0.83137143 1.2684627 4.8783154 12.074
-2.7321806 1.4596789 5.1802425 12.5665
-2.4846296 1.3371446 5.1381869 12.06725
-1.5977205 1.6596522 4.9493999 13.0705
-1.3569592 1.6365206 4.9002719 13.0715
-5.1695671 1.8110745 5.6125979 13.061
-2.4987974 1.7539351 5.1140857 13.06725
-1.7526332 1.7872038 4.9680462 13.669901
-1.3647817 1.8166754 4.8903494 14.0715
-7.5766058 2.0438693 5.7037458 13.057
-5.7700472 1.8747082 5.6999125 13.06
-5.4664888 1.842694 5.6586137 13.0605
-2.9652185 2.0585673 5.3132296 14.06625
-4.974123 2.3299103 5.4174991 14.061
-2.9385095 2.1063752 5.5357823 14.067
-3.2029562 2.2491019 6.0401206 14.0675
5.1497436 2.1448414 5.3556886 13.1065
-8.0184078 2.2657168 7.0967112 13.0595
-6.0671978 2.3871543 6.7147226 14.062
-8.7339363 2.363534 7.3427153 13.059
-2.4244194 2.7354569 11.176123 13.0775
-1.9088601 2.8908052 11.88363 13.07925
-1.6805056 2.9705303 12.23667 13.08
-1.3748258 2.994982 12.314074 13.08075
-1.0422314 2.9932902 12.25948 13.0815
-0.86765569 0.02891257 -6.3832746 8
0.6291275 0.019064169 -6.4445038 8
-1.0803751 1.6625067 -6.4177418 14
0.35537165 1.91798 -6.3965583 14
-2.1220191 0.045024868 -4.7353263 8
-2.09693 0.26269326 -4.7337823 9
-2.0919292 0.48144752 -4.7230763 10
-2.0920007 0.047015745 -3.8846049 8
-0.34833646 0.029833321 -3.7592049 8
0.65901881 0.024282087 -3.7903376 8
-2.0889049 0.23747499 -3.9084625 9
-2.0733123 0.42824501 -3.8978143 10
-2.1379642 0.62300634 -3.9090881 11
-1.0902655 0.56968737 -3.7830863 11
-0.36688626 0.73826414 -3.8203397 12
0.70240009 0.55419207 -3.7406015 11
-2.1506333 0.82283646 -3.9477043 12
-1.1996491 0.75457859 -3.7911458 12
0.72470969 0.73666787 -3.7653975 12
0.72366518 1.1002108 -3.7633791 13
-2.0655 1.2120228 -3.9481816 13
0.73148495 1.2827896 -3.7587585 14
-2.0738974 1.4050064 -3.9194336 14
-2.4350023 0.052376237 -3.6255651 8
-2.1969843 0.049121264 -3.6353078 8
-1.1266626 0.036427047 -3.7692671 8
-0.2433891 0.029420655 -3.5858459 8
0.026806146 0.027683835 -3.5997777 8
0.75356781 0.024299849 -3.6252313 8
1.0406044 0.023621526 -3.5643754 8
1.8406143 0.022783581 -3.5484486 8
-2.5677826 0.24529485 -3.736135 9
-2.1808901 0.23210661 -3.6487226 9
-1.1970835 0.21443744 -3.7630796 9
-0.36491531 0.20326738 -3.7409964 9
-0.22621316 0.19700511 -3.5832901 9
0.026796758 0.19608197 -3.5971999 9
0.68360287 0.19987012 -3.7274971 9
0.75777656 0.19473819 -3.5606437 9
1.9374053 0.20533612 -3.5467639 9
-2.5531602 0.43595001 -3.7092204 10
-2.1794362 0.4167152 -3.6492481 10
-1.212888 0.39326859 -3.7606387 10
-1.0894928 0.39132082 -3.7735329 10
-0.34714222 0.37776971 -3.742631 10
-0.22592363 0.36636862 -3.5897284 10
0.70176506 0.37705487 -3.7304859 10
0.77886897 0.4520874 -3.5619421 10.5
2.0724483 0.39251217 -3.5346174 10
-2.5663004 0.630355 -3.7390828 11
-2.1916826 0.59945428 -3.6320786 11
-1.2146752 0.57199228 -3.7699394 11
-0.36517188 0.55211103 -3.7472258 11
-0.24342211 0.62818366 -3.6696005 11.5
0.82746202 0.71309054 -3.5728903 12
2.2957649 0.58711857 -3.5275846 11
-2.4149902 0.80157071 -3.6408062 12
-2.1928136 0.78604388 -3.6390924 12
-0.22583944 0.87672091 -3.5883274 13
1.2445769 0.90490413 -3.5670643 13
1.5552742 0.74092531 -3.5778875 12
2.3182685 0.77959615 -3.5351462 12
-1.1979656 1.1215478 -3.7928634 13
-0.36453211 1.0894397 -3.7692356 13
0.79390508 1.0650581 -3.579885 13
1.5044458 1.1031046 -3.5727282 13
-2.4107864 1.1842952 -3.6399722 13
-2.1907938 1.2590361 -3.6448884 13.5
-1.1048093 1.2979636 -3.7792778 14
-0.36421859 1.2711579 -3.7738461 14
-0.24209027 1.2295862 -3.6110878 14
2.2569292 1.1615008 -3.544004 13
-2.447567 1.3807057 -3.6350474 14
2.5181623 1.3888882 -3.553432 14
2.0211213 0.73819345 -3.3528166 12
1.5852098 1.0683452 -3.3649535 13
2.0262949 1.1068556 -3.3694925 13
1.5400109 1.243511 -3.369915 14
2.0225904 1.2900345 -3.3648815 14
-9.448288 2.040493 -3.8044233 13
-6.3905053 2.0665421 -3.5637932 14
1.7704017 0.71803045 -3.3102417 12
-6.9391007 2.0890539 -2.782176 14
-9.2977915 2.2934713 -2.6281791 14
-9.5265245 1.9464333 -1.9712516 13
-1.2970674 0.085681066 -0.76155984 8.5
-1.3178992 0.30750912 -0.71794403 10.333333
-1.3497307 0.51163661 -0.64840627 13
-1.4497583 0.12162632 -0.41315174 9
-1.4508615 0.26525611 -0.41748297 10
-1.6343567 0.12607244 -0.27288377 9
-1.4983435 0.051657919 -0.33992648 8
-1.6424031 0.30825981 -0.28449202 10.5
-1.4792511 0.36980185 -0.3530575 11.5
-1.6464787 0.4574936 -0.29174519 12.5
-1.4914832 0.51403069 -0.33711731 13.5
2.741055 0.11145256 0.67430443 8.5
2.7501984 0.26926953 0.69573033 10
2.7591295 0.53567952 0.64972734 11.5
2.7530499 0.75144625 0.64602757 13.5
1.1863246 0.17328952 0.71689337 9.5
1.1937795 0.044597421 0.71991009 8
2.7517104 0.060991257 0.76914704 8
1.1720419 0.29931802 0.75770426 12
1.1955147 0.25259593 0.71157265 11
2.8940918 0.50075704 0.92250401 11
2.8917754 0.66733783 0.91885304 12.5
2.7980127 0.16927114 0.95135474 9
2.8151031 0.27663979 0.989833 10
2.8372662 0.54713386 1.0287299 11.5
2.8325555 0.71006542 1.0091928 13
2.8626249 0.82834548 0.91810471 14
-2.0011582 0.14001112 1.1592205 8.5
1.1711857 0.14845626 1.2760621 9
1.1814232 0.19722062 1.2772537 10
1.1720314 0.31758481 1.2753692 12.5
1.1800203 0.24552652 1.2760534 11
1.1733015 0.17551659 1.3956442 9.5
1.16958 0.32088551 1.3927488 12.5
1.1812053 0.2491765 1.3957598 11
-2.0899477 0.16682696 2.0038967 8
1.1623237 0.12480436 2.0168259 9
-2.0901873 0.33620083 1.9801004 9.5
1.1601939 0.16667703 2.1147614 9
1.1508412 0.37527531 2.2785687 12
1.1639941 0.2983779 2.1130593 11
-2.0802209 0.21445669 2.2761271 8.5
1.1557648 0.13917667 2.3165081 8.5
-2.0918672 0.39946112 2.2906985 10
1.1623487 0.28966901 2.3127389 10.5
-2.0867374 0.15608223 2.6235523 7.5
1.5185785 0.13464911 2.7595637 8.5
-2.0889344 0.35362104 2.6090198 9
1.1446161 0.16146529 3.4716225 8.5
1.1502025 0.38790056 3.4708447 10
1.1424923 0.17721958 3.7951932 8.5
1.1472874 0.42815536 3.7924485 10
2.8367662 0.82573527 3.742033 12
2.8545368 0.98414695 3.8202524 13
2.8330989 1.1253242 3.8200345 14
2.8304322 0.85336566 3.9381871 12
2.3925107 0.87948298 4.4517951 12
2.3965743 1.0293512 4.4515467 13
2.8085585 0.9333334 4.4725394 12
2.3913 1.176277 4.4398832 14
2.8160262 1.1747441 4.4724736 13.5
-5.2738109 1.0687724 4.4191256 11
-5.1202712 1.2653379 4.4897289 12
-5.2563663 1.4921206 4.4040089 12
-5.1383772 1.6802231 4.3985934 13
-1.4217422 0.23980381 4.7043347 7.5
0.19859844 0.28847367 4.7959628 9
-2.555438 0.48975685 4.7746153 9
-1.6339471 0.38173115 4.7939396 8.5
-1.5621383 0.58065581 4.7993212 10
-1.0417423 0.55667591 4.8103061 11
-0.85996687 0.55051941 4.8068547 11
-0.64241332 0.54404545 4.7993803 11
0.022860125 0.54024452 4.8185043 11
1.4142261 0.57597846 4.8369226 11
1.676914 0.59175205 4.862956 11
0.22277248 0.79923147 4.8269768 12
1.8175595 0.88977015 4.837327 12
-1.4098613 0.95151323 4.6823139 12
-0.91684943 1.0697818 4.7919812 14
-0.25363004 1.0514202 4.807004 14
2.0437167 1.0674711 4.8522286 13
-1.5577128 1.1296184 4.7947712 13
1.2220402 1.1225964 4.8310161 14
2.0239172 1.2174159 4.8426476 14
-2.4276884 0.34000179 4.8214316 8
-2.6406846 0.64691889 4.798265 10
-1.2757251 0.70132369 4.8350053 11
-5.109551 0.86869782 4.7391577 10
-2.6572499 0.8049497 4.8236732 11
-1.5745275 0.86205888 4.8384151 11
-1.27196 0.83307356 4.8249774 12
-5.1317372 1.0859421 4.753746 11
-2.6383214 1.1090701 4.7946997 12
-1.2375906 1.0343113 4.8288984 13.5
-0.93865061 0.94895416 4.8314986 13
-0.26875293 0.93365115 4.8540812 13
1.2451589 0.99469644 4.8777494 13
-5.1311073 1.3019063 4.7528334 12
-2.6273429 1.2603379 4.7778807 13
-5.1138072 1.7286026 4.7106099 13
-2.8130007 0.048702534 -6.464684 8
-2.4589903 0.044420045 -6.493032 8
-2.2985408 0.042605694 -6.4902091 8
-2.016916 0.039556902 -6.4822459 8
-1.388943 0.033463489 -6.3966446 8
-1.0490665 0.030433144 -6.3904443 8
0.48010403 0.019826394 -6.4381957 8
0.60174078 0.01920132 -6.4424376 8
-4.0141654 0.36465782 -6.4905581 9
-2.8045604 0.33181936 -6.4685712 9
-2.4564338 0.32474527 -6.4910545 9
-2.2968071 0.32140249 -6.4899144 9
-2.0162394 0.31586322 -6.4862633 9
-1.768208 0.3091656 -6.4159727 9
-1.3948979 0.30270222 -6.3985434 9
-1.0531113 0.29774377 -6.3883305 9
-0.53518313 0.2919561 -6.381269 9
0.42604923 0.28840616 -6.437088 9
0.68203801 0.28786662 -6.4328227 9
0.98149365 0.28789881 -6.4298334 9
-4.0020766 0.66637439 -6.4888964 10
-2.8088212 0.61785674 -6.4764872 10
-2.472404 0.60844123 -6.5024462 10
-2.2965727 0.60265207 -6.4952683 10
-2.0008173 0.59396708 -6.4881368 10
-1.7619572 0.58153647 -6.3924723 10
-1.3836007 0.57324904 -6.3927698 10
-1.1078291 0.56831133 -6.3950453 10
-0.80677146 0.56343317 -6.3896713 10
-0.5477578 0.55992329 -6.3848248 10
0.42547655 0.55814552 -6.4295444 10
0.68224293 0.55905211 -6.4357085 10
0.97509128 0.56052744 -6.4351244 10
-4.0079746 0.967314 -6.4883013 11
-3.8742344 0.95603681 -6.4528737 11
-2.9024951 0.90873396 -6.5003481 11
-2.4733417 0.89055741 -6.5075684 11
-2.2982624 0.88347542 -6.5063 11
-2.0027685 0.87206042 -6.4992557 11
-1.7719429 0.85872698 -6.4425235 11
-1.387763 0.84419841 -6.4055572 11
-1.1091509 0.83753604 -6.4038877 11
-0.80754924 0.83139014 -6.3979225 11
-0.5410468 0.9603976 -6.3815222 11.5
0.4327994 0.82883358 -6.4500213 11
0.6952101 0.82958126 -6.443161 11
0.97462481 0.8321709 -6.4414201 11
-3.8867373 1.266659 -6.5208035 12
-2.9067652 1.2068944 -6.5636477 12
-2.4615886 1.1774917 -6.5247021 12
-2.3007648 1.1692332 -6.5220346 12
-2.0049829 1.1551642 -6.5160065 12
-1.7707117 1.1359041 -6.4440603 12
-1.3492992 1.2097644 -6.4164305 12.333333
-1.108065 1.247422 -6.4086814 12.5
-0.80682033 1.239594 -6.4035988 12.5
-0.54345143 1.2805072 -6.4061537 12.666667
0.43105978 1.246127 -6.4961987 12.5
0.68871635 1.1112865 -6.5050292 12
0.96720701 1.1127394 -6.4862723 12
-3.8888018 1.5753099 -6.5319662 13
-2.4595706 1.4659724 -6.5249095 13
-2.2991214 1.4561225 -6.5224328 13
-2.0035336 1.4393836 -6.5169711 13
-1.7636144 1.4106925 -6.4166222 13
-1.3987868 1.5828114 -6.4240746 13.666667
-1.1484497 1.6656927 -6.4219098 14
0.42585015 1.6642829 -6.5003276 14
0.70850664 1.3855373 -6.4809871 13
0.98680145 1.3904483 -6.4774361 13
-1.0277778 1.9444886 -6.4409337 14
-0.80000901 1.9347025 -6.4292912 14
-0.54721487 1.9278715 -6.4258657 14
0.55520755 1.9223551 -6.4011154 14
0.70285386 1.9250084 -6.3984318 14
0.97133499 1.9302891 -6.3874259 14
-2.071274 0.044414397 -4.7381186 8
-2.0576565 0.37195373 -4.7483363 9.5
-2.082763 0.70000839 -4.7319312 11
-2.0967736 0.9284144 -4.7823634 12
-2.0918756 1.1576377 -4.8092375 13
-2.0857909 1.6114192 -4.8007512 14
-2.0973959 1.0116813 -3.9188809 13
-2.5406067 0.24479116 -3.746099 9
-2.2844472 0.14261007 -3.6540036 8.5
-2.1422493 0.14251186 -3.8580999 8.5
-1.142146 0.095559523 -3.7691092 8.333333
-0.28053746 0.12804124 -3.7168937 8.5714283
0.72563165 0.12887014 -3.7125192 8.6000004
1.0725026 0.10961057 -3.5503006 8.5
1.2087269 0.11039932 -3.5625081 8.5
1.5183702 0.11156785 -3.5557408 8.5
1.790786 0.11318448 -3.5485172 8.5
-2.5408392 0.43790516 -3.7507844 10
-2.27776 0.42117587 -3.6567616 10
-2.1213784 0.42783764 -3.8630919 10
-1.1476142 0.3919476 -3.7634659 10
-0.24872217 0.41469184 -3.6782374 10.25
0.73834991 0.37761799 -3.7337656 10
0.88275474 0.42598715 -3.5763316 10.333333
1.2156584 0.37246171 -3.5533705 10
1.5150328 0.37837717 -3.5483351 10
1.8899412 0.38756981 -3.5415258 10
-2.5574749 0.73198366 -3.7791648 11.5
-2.2806492 0.70110613 -3.6615162 11.5
-2.1266286 0.71650046 -3.8814001 11.5
-1.1470253 0.69109994 -3.7789989 11.666667
-0.28740022 0.63761789 -3.7356973 11.5
0.74680632 0.61159468 -3.7099338 11.333333
0.94884557 0.65880841 -3.5755382 11.666667
1.2726147 0.66817182 -3.56528 11.666667
1.5115161 0.64685649 -3.5606456 11.5
1.8067517 0.56680584 -3.5490842 11
2.1453569 0.64492345 -3.5471902 11.333333
-1.1446195 1.1191448 -3.7940388 13
-0.26695502 1.0778522 -3.7192421 13
0.73924792 1.0981066 -3.7504783 13
0.91914743 1.0724887 -3.5883822 13
1.3089323 1.0908732 -3.5753503 13
1.5391896 1.1041344 -3.5653973 13
-2.5465007 1.2200733 -3.7550788 13
-2.2684319 1.2911178 -3.6687832 13.6
-2.1272035 1.3048887 -3.8909035 13.5
-1.1511159 1.3014275 -3.7830777 14
-0.26527393 1.2535032 -3.7068305 14
0.91918522 1.2518637 -3.5914016 14
1.311579 1.2733858 -3.5769215 14
1.5413601 1.2905564 -3.5740805 14
2.2177479 1.2580904 -3.5612888 13.5
2.4155674 1.3788843 -3.5654025 14
-2.4269667 0.2371124 -3.5894203 9
-2.4294515 0.4239341 -3.5989709 10
-2.4359591 0.70477152 -3.6059175 11.5
1.6201665 0.71788734 -3.3727646 12
1.8791111 0.72943646 -3.3508096 12
2.0242968 0.74248481 -3.3860893 12
1.6164641 1.0736049 -3.3791537 13
1.8859835 1.0931897 -3.3639417 13
-2.4447277 1.1848196 -3.6244941 13
1.6225126 1.2542242 -3.3841219 14
1.8863361 1.2761748 -3.3669391 14
-9.4867783 2.0347302 -3.6283503 13
-6.4395871 2.0703759 -3.5155153 14
-9.4933186 2.015028 -3.3241391 13
-6.6069021 2.0763862 -3.28825 14
-9.5004196 1.9981833 -3.039361 13
-6.8185248 2.08586 -2.9882479 14
-9.5091143 1.9814984 -2.731853 13
-6.916512 2.0896614 -2.8324203 14
-9.4944639 2.355015 -2.8857923 14
-9.3757687 2.3183081 -2.7371478 14
-9.5138159 1.9660712 -2.4302893 13
-9.5215683 1.9529521 -2.1354136 13
-9.5199661 1.9466897 -2.0053749 13
-1.3270252 0.16332644 -0.70453668 9.25
-1.341027 0.4732281 -0.66422129 12.5
-1.4786258 0.15806112 -0.38109779 9.25
-1.4780662 0.46328047 -0.40391743 12.666667
-1.5956955 0.19509585 -0.26023316 9.666667
-1.6115093 0.41370046 -0.27430403 12
2.7421045 0.16393425 0.68615609 9
2.7467206 0.53301632 0.68976516 11.5
2.7476897 0.74902755 0.68465656 13.5
1.1852615 0.159802 0.75318205 9.666667
2.7488594 0.1651725 0.78199899 9
2.8069558 0.22278444 0.94393331 9.5
2.7443216 0.53166342 0.78104651 11.5
2.8440349 0.54799891 0.97447455 11.5
2.7478607 0.74691457 0.78375757 13.5
2.8560672 0.75261253 0.92894632 13.333333
-1.9910545 0.16071615 1.1549162 9
-2.0920272 0.2112838 1.9781501 8.5
1.1617286 0.20063978 2.0589552 9.5
-2.0942538 0.36929572 1.9589934 10
-2.0854545 0.22241467 2.2815719 8.3999996
1.1604249 0.2034023 2.2671528 9.5
-2.0891743 0.39723983 2.2725539 10
1.1536145 0.37296429 2.2584143 12
-2.0873845 0.23510353 2.6146755 8.25
1.5227892 0.20153506 2.7626877 9
-2.101609 0.43803284 2.6286423 10
1.1470892 0.16076054 3.4583669 8.5
1.1500866 0.38574257 3.4534445 10
1.1454167 0.17659524 3.7794385 8.5
1.1466916 0.42530045 3.7702618 10
2.843163 0.7782023 3.8712487 12
2.8425045 1.0658966 3.8830938 13.5
2.4099419 0.88124281 4.4502373 12
2.7972445 0.93361098 4.4830694 12
2.4082165 1.1038218 4.4403262 13.5
2.7930899 1.1707648 4.4706402 13.5
-1.682246 0.31569895 4.7879143 8
-1.3146956 0.21766049 4.7265372 7.6666665
-1.1326277 0.26006153 4.8009229 8.333333
-0.72378641 0.29516047 4.7936187 9
-0.3427822 0.2296776 4.7902951 8
-0.29140991 0.29026905 4.7926679 9
0.19921389 0.2887041 4.7991343 9
1.61303 0.30427006 4.84589 9
-5.1265612 0.6484623 4.5662718 9
-2.578176 0.49045321 4.7688541 9
-2.2655692 0.50457299 4.787241 9.1999998
-1.9896986 0.53225243 4.7826376 9.5
-1.6740866 0.52695894 4.7858887 9.5714283
-1.3037782 0.54586452 4.749258 10.5
-1.0512624 0.49419513 4.8181481 10.5
-0.77411437 0.67816401 4.8194647 11
-0.37519515 0.54443622 4.8277755 10.5
-0.10675387 0.65320343 4.8297858 11
0.16632962 0.54525352 4.8471437 10.666667
0.69470036 0.53651416 4.856585 10.6
1.0234878 0.56459898 4.861764 11
1.3068771 0.50690478 4.8643756 10.5
1.576689 0.51754999 4.8728166 10.5
-5.127522 0.85442013 4.5597095 10
-1.9910655 0.86252606 4.7912421 11
-1.705826 0.83443159 4.7941852 11
-1.3084509 0.88313842 4.7375555 12.5
-1.0012698 0.81500745 4.8093319 12
-0.71755075 0.80132842 4.7986741 12
-0.39324582 0.79490036 4.8077703 12
-0.11128581 0.79575473 4.8219151 12
0.158364 0.79808021 4.8260388 12
0.70276284 0.81696653 4.8428783 12
1.0877836 0.82514191 4.8463058 12
1.3350325 0.89720541 4.8450451 12.5
1.6650088 0.8041414 4.8744712 12
1.9461796 0.8582983 4.8793955 12
-5.1266928 1.1716131 4.5766006 11.5
-2.3238451 1.2147341 4.771925 13
-1.9298859 1.1287878 4.7771339 12.75
-1.6680357 1.1357069 4.7758107 13
-1.3246663 1.0787585 4.7189465 14
-1.0143092 1.0758824 4.7918944 14
-0.2729637 1.0515454 4.8067493 14
1.3531287 1.0879641 4.8323669 13.666667
1.6924779 1.1013117 4.8414445 13.5
1.9345536 1.1297567 4.8454294 13.5
-5.1218433 1.4879125 4.5542049 12
-5.1775522 1.7069225 4.5013666 13
-2.5026383 0.34313086 4.8304873 8
1.65306 0.16786751 4.9462533 8
-5.1222367 0.4497129 4.738276 8
-2.5532837 0.64036858 4.7967491 10
-2.3978431 0.62915456 4.7945113 10
-1.0811703 0.56159538 4.8277102 10.5
-0.72542202 0.42585063 4.8452129 10
-0.44602787 0.42396221 4.8693333 10
-0.21637559 0.42374042 4.8871527 10
0.073364586 0.42179957 4.8767276 10
0.65938777 0.55556816 4.8728142 11
1.3290124 0.57913536 4.8884873 11
-2.483007 0.7991181 4.8197622 11
-2.2621949 0.90142429 4.8038154 11
-1.7052314 1.0069218 4.8093662 12
-1.2263103 0.89603746 4.8182302 12.5
-1.0290762 0.95581305 4.8389902 13
-0.25628519 0.93843466 4.8736353 13
1.2685485 0.99680519 4.8787637 13
1.7382267 0.89272797 4.8893075 12
1.862798 0.90669572 4.9052811 12
-2.5572402 1.1735609 4.7839246 12.5
-2.276454 1.0636351 4.7943816 12
-1.1990299 1.0953317 4.8145008 14
-5.300385 1.6712297 -8.9490995 12.014
-5.2596383 2.0630817 -8.876008 13.014
-5.2831564 1.6135594 -8.4854803 12.0145
-5.2785101 2.0049067 -8.4849815 13.0145
-2.9633985 0.050428029 -6.4781351 8.0105
-0.6967268 0.027477067 -6.3847132 8.0024996
-2.8301635 1.2003202 -6.5536022 12.01
-2.8151979 1.4864131 -6.5157714 13.01
-4.1532054 1.9036819 -6.4870181 14.01425
-3.8877759 0.062934563 -6.4246573 8.0135002
-2.5526793 1.8254777 -5.5434246 14.01025
-2.1656132 1.7936891 -5.5517297 14.00875
-1.8475223 1.7668598 -5.5386033 14.0075
-1.421593 1.7489709 -5.5709929 14.005751
-3.4953239 1.9492946 -5.6404619 14.0135
-2.1271386 1.6166128 -4.813549 14.0095
-8.5952864 1.9924706 -4.9683175 13.0275
-2.0901823 0.66083592 -4.3326077 11.01
-2.0949371 1.2338147 -4.0524502 13.0105
-2.6409726 0.15028736 -3.7012477 8.5137501
-0.64431655 0.11906068 -3.77321 8.5031252
-0.44774479 0.030470509 -3.7743692 8.0019999
0.47159499 0.025095385 -3.7504392 8.1767502
1.0115459 0.023669507 -3.5585265 8.1735001
0.076150656 0.37567458 -3.7490096 10.179
-0.27159861 1.0845906 -3.7552023 13.001
0.077175319 0.90828943 -3.7752771 13.179
1.476927 1.2863455 -3.5807843 14.171
-8.2448969 1.835495 -3.8810987 13.0295
-7.8994584 1.7828201 -3.9466376 13.028749
-7.5236425 1.7229904 -3.9768238 13.028
1.9853888 0.14058563 -3.3021188 8.8345003
1.5315549 0.72183406 -3.4404039 12.1705
2.0516851 0.37826082 -3.3071885 10.1675
1.5294719 1.0785128 -3.440218 13.1705
-6.7033238 1.56661 -3.73984 13.027
1.5286398 1.2583601 -3.44068 14.1705
2.5564547 1.3795762 -3.4872456 14.1655
-9.0865688 1.9736068 -3.7848449 13.031
-8.7223015 1.9093227 -3.777844 13.0305
-8.3828669 1.8499683 -3.77105 13.03
-4.9351158 0.76675928 -3.0721254 11.0245
-4.7683988 0.75048357 -3.0689964 11.024
-4.4670544 0.51113898 -3.0715165 10.023
-5.4876599 1.0646806 -3.0992041 12.026
-5.1217742 1.0175799 -3.0907025 12.024999
-4.6662149 1.0336361 -3.0761552 12.356999
2.7921886 0.8823961 -3.04318 12.829834
-5.4943433 1.3106362 -3.1070371 13.026
-5.0360379 1.2388086 -3.09584 13.02475
-4.7777829 1.1991202 -3.0863008 13.024
-5.5840425 1.8246077 -3.1136317 14.02625
-5.1214738 1.7257888 -3.1036658 14.024999
-4.6958356 1.6371751 -3.0902491 14.02375
-8.0461216 2.08864 -3.3832669 14.0305
-8.8217163 2.1924741 -2.6906576 14.0335
-7.3911362 2.1820173 -2.6674523 14.0315
-7.1290932 2.1206298 -2.6820474 14.031
-7.6066284 2.2128799 -2.4562125 14.0325
0.34185272 0.030174226 -1.547999 8.1750002
0.74172676 0.029011339 -1.6534778 8.1715002
1.2127581 0.25234079 -1.6251498 10.1675
-7.8716831 2.225785 -1.8635901 14.03475
0.38152677 0.085994005 -1.3336586 8.7740993
1.0303705 0.029387102 -1.491805 8.1684999
1.2445691 0.24269514 -1.4498609 10.1665
-8.000845 2.2337663 -1.5255369 14.035999
-1.2864866 0.28439021 -0.791098 10.0145
1.2277031 0.16361479 -0.82341301 9.41325
-9.5614347 1.928003 -1.3522609 13.038
-9.0737343 2.1616206 -1.2214636 14.038
7.7502761 2.1273665 -0.77837455 14.14275
-1.8435037 0.38347799 -0.45876777 11.0225
-1.4259732 0.16418397 -0.50512338 9.3750706
-1.3403847 0.23526049 -0.68759513 9.8728571
1.2271092 0.033071693 -0.70625532 8.1625004
-1.4101088 0.48088297 -0.52134168 12.8177
-1.3157456 0.49495435 -0.74065363 12.681834
2.8857524 0.91362447 -0.40436423 14.149667
-9.57549 1.9167196 -0.83407295 13.0395
-8.3045645 2.2689352 -0.73812723 14.039
-1.9861357 0.33613548 -0.16959834 10.526376
-1.5709746 0.18342029 -0.25827575 9.385273
0.57385671 0.062374063 -0.243348 8.66675
-1.8327405 0.49806544 -0.3913933 12.523
-1.6340115 0.53065205 -0.33903384 13.450143
2.8761096 0.88598156 -0.14429235 14.147751
-2.0127208 0.31386665 0.26077074 10.531333
-1.5673714 0.1137839 0.29454136 9.0279999
-1.3435264 0.1142671 0.27546865 8.6918888
2.8466017 0.7239064 0.44593245 13.143
2.8828919 0.85776794 0.25467443 14.144501
8.6865816 2.3375154 0.41952538 14.13825
8.9290581 2.4000208 0.63608646 14.1375
-2.0131097 0.27366081 0.61220616 10.112885
-1.5268662 0.11828506 0.73834026 8.6063566
-1.3753793 0.095895819 0.57275468 8.5304995
0.93417078 0.042545866 0.74730009 8.1475
1.1840918 0.22059615 0.74050939 10.691091
2.7727623 0.16761258 0.91033745 9.1389999
2.7974815 0.61849463 0.71098292 12.3407
9.015008 2.423063 0.7917192 14.137
-2.0301232 0.23300058 1.0677074 9.757143
-1.4495959 0.060943931 0.84446263 8.0365
0.84092969 0.16842367 1.2068243 10.47025
1.1491086 0.13977633 1.1789325 9.4943924
2.8346367 0.7108357 1.05018 13.1375
9.1780834 2.4724765 1.2738305 14.135501
-2.0402043 0.27473366 1.3719532 10.184022
-1.545733 0.073459834 1.4196792 8.0494995
-1.3216314 0.067460805 1.397113 8.0495005
0.93713874 0.11801852 1.5377662 8.9288502
1.1278341 0.20562567 1.4331565 10.495502
9.1813478 2.4841626 1.6834797 14.13425
-2.0269856 0.24367094 1.7614903 9.7758331
-1.4430869 0.078983463 1.7624934 8.0569992
0.94575101 0.093251333 1.7243023 8.3747501
1.1419711 0.25704214 1.8936701 10.912605
-2.3919976 0.50481486 1.9745522 12.055
-9.456255 2.2330956 1.6166109 14.047
-8.5120764 2.3107252 1.5754471 14.047
9.2095737 2.5003102 1.9304816 14.1335
-2.037519 0.23803106 2.1892381 9.5139542
-1.7776005 0.093515471 2.0296748 8.059
0.52585644 0.096265495 2.2901134 8.1086254
0.81849855 0.12359126 2.3173823 8.6129999
1.1131113 0.22962624 2.2377269 9.8675013
-8.5345364 2.3335164 2.017015 14.0485
9.3036108 2.5485353 2.4386373 14.132
-2.3540628 0.39897087 2.7708178 10.0635
-2.0729387 0.23039715 2.665977 9.1199713
-1.0126207 0.15600494 2.6995034 9.076375
0.82723039 0.2156188 2.583626 9.4431658
1.0355871 0.28072181 2.5143173 10.3131
1.516598 0.19408977 2.7582357 9.1152496
2.820915 0.93848175 2.7151136 14.12275
-9.3998423 2.2515721 2.4259727 14.0495
9.1568031 2.5341063 2.8354387 14.13075
-3.2112899 0.2445998 3.069524 8.8113756
-2.3845229 0.21989076 2.7991405 9.0635004
-2.0428195 0.27218765 2.9694412 9.2673664
-1.0287809 0.13229413 2.9167418 8.4778004
0.18208429 0.12858772 3.180079 8.4300003
1.1549706 0.3512432 3.1682651 10.1085
-2.3647287 0.52162832 3.0183935 11.065501
2.8226771 0.99890906 3.1177855 14.119875
-9.3642921 2.255959 2.6677437 14.05025
9.1579885 2.5580161 3.1751924 14.12975
-3.4318566 0.29459441 3.2577806 9.0617504
-2.0485837 0.31161195 3.4275861 9.5252733
-1.8084538 0.1990449 3.5249429 8.6732998
0.099361658 0.2638599 3.3925619 10.095
0.15094572 0.16040628 3.4257631 8.6956005
1.146786 0.27053857 3.4798961 9.3922138
-2.3790255 0.54813749 3.2212162 11.067
2.8599219 1.0965372 3.6397786 14.11675
-8.3385248 2.3538699 3.1721234 14.052501
9.1424923 2.603121 3.7739992 14.128
-2.0630093 0.39610073 3.6779838 10.405499
-1.8070772 0.19783764 3.7415566 8.5744991
1.1405199 0.27584407 3.7734122 9.3548746
2.7958589 0.35400617 4.0064034 9.6145
2.8532574 0.72326177 4.0419149 12.1145
2.8385947 1.0929404 4.0358567 13.6145
-8.2163773 2.358983 3.5946651 14.054
9.162631 2.6421282 4.1340528 14.127
2.4270182 1.0322137 4.4453444 13.1105
2.715399 1.0900706 4.3738613 13.299781
-6.441308 1.4709827 4.2100549 13.0585
-6.0486012 1.4002523 4.2140207 13.05925
-9.6328526 2.0569525 4.0168567 13.054
-8.0563087 2.3588235 4.0021486 14.0555
-7.6190181 2.2623184 4.1466541 14.0565
8.7767124 2.5703719 4.3613572 14.126
-1.2654424 0.30353528 4.7802052 9.0825005
-0.94456369 0.29866442 4.7975173 9.085
-0.56048298 0.29306272 4.7964449 9.0879993
-0.091184229 0.29006389 4.8079648 9.0917501
1.1412899 0.43400583 4.8678389 10.101
1.3967726 0.30284274 4.8748865 9.1027498
-0.3109234 0.54161274 4.8204856 11.09
0.32154793 0.73724484 4.8339524 11.595
0.52119023 0.74370551 4.8424339 11.5965
1.1444333 0.63679105 4.8648562 11.601
1.3592052 0.71661705 4.8648467 12.1025
-5.4853921 1.2061288 4.3511152 12.561
-2.4743576 1.2334574 4.7753015 14.0745
-1.9788942 1.1670992 4.7851701 14.0775
-1.4412951 0.95460582 4.7154889 13.081
0.39054346 1.0613642 4.8112669 14.0955
1.0899878 1.1095492 4.8275914 14.10075
2.0423107 1.1437641 4.849822 13.60675
2.3421144 1.098389 4.7230272 13.242233
-5.705595 1.3543186 4.3504701 13.0605
-9.6105709 2.0658286 4.1896257 13.0545
-6.7315946 2.1030376 4.6296706 14.0595
-5.9136376 1.8609312 4.3331504 14.06
-5.6651459 1.7997476 4.3244338 14.0605
-5.4608459 1.7520628 4.3314047 14.061
-7.547967 2.2681942 4.3438625 14.05725
-7.3882551 2.2580354 4.577034 14.05825
-2.5161393 0.34432408 4.8526616 9.0745001
-1.7097111 0.18763323 4.9448814 8.0797501
-1.1572599 0.18312357 5.0059795 8.0837498
-0.90203089 0.18026444 4.9992614 8.0855999
-0.51826227 0.17614745 4.9807582 8.0884991
-0.13235816 0.22442822 4.9876876 8.4913998
0.22032326 0.23334484 4.946629 8.5941248
0.76525146 0.16775611 4.9311581 8.0982494
1.0611355 0.16753073 4.9382572 8.1003332
1.49385 0.1675652 4.9415183 8.1031675
1.7033107 0.16756342 4.9367204 8.1044998
-3.7193623 0.91450977 4.7990189 12.0685
-3.3207917 0.87005156 4.807353 12.07025
-2.8800879 0.79295963 4.8121924 11.8724
-1.5632608 0.72083688 4.8553047 12.0805
0.45860356 0.55143744 4.872673 11.096
-4.009521 1.3188417 4.7679472 13.06725
-3.6975012 1.2663323 4.7750254 13.0685
-3.3024001 1.2034869 4.7847733 13.07025
-2.861212 1.2148908 4.7800298 13.572375
-1.9965689 1.0291042 4.8035417 13.0775
-1.5508113 0.9900198 4.825388 13.0805
-4.9147973 1.5927938 4.7643929 13.56425
-4.5047641 1.5085716 4.7610497 13.565501
-4.1113887 1.4798375 4.766674 13.816875
-3.7010241 1.4486064 4.7780032 14.068501
-3.3028865 1.3749992 4.7850013 14.070251
-3.0380037 1.3277609 4.786026 14.0715
-8.1675167 1.8369914 4.6952105 13.0575
-7.7847915 1.7656341 4.6878071 13.058
-5.1607471 1.751573 4.7483745 14.0635
-2.029747 0.39539197 5.8519931 9.0799999
1.1130383 0.37876034 6.0321345 9.0985003
-10.567146 2.3617826 5.5191398 13.057
-8.8973207 2.4115689 5.5635648 14.059
1.1200044 0.40457594 6.4021926 9.0979996
1.0773571 0.43486726 6.8387728 9.09725
2.6074653 2.3215325 10.065308 14.0995
-6.9552393 2.3987243 10.014179 13.072
0.12428942 2.3038909 10.325846 14.09175
0.51954442 2.2930799 10.271456 14.092999
0.99687403 2.29214 10.233457 14.094501
1.483505 2.3064649 10.233307 14.096
1.7546799 2.3443937 10.344185 14.09675
2.0126679 2.3616445 10.367706 14.0975
2.4567347 2.3270957 10.12702 14.099
-0.27925003 2.3841257 10.63978 14.0905
-6.3595786 2.4848759 10.889308 13.0745
-1.5108452 2.54443 11.168666 14.087
-1.0560949 2.4924326 11.017786 14.08825
-0.69993061 2.4303036 10.801788 14.089251
-2.1058218 2.6464403 11.477139 14.0855
-1.8105943 2.607677 11.374831 14.08625
-1.3405893 2.5522008 11.223646 14.0875
-2.9892347 2.8423517 12.071479 14.0835
-1.8965783 0.41921806 -6.4544005 10
-1.92363 1.0305643 -6.5117564 12
-0.77628154 1.6224881 -6.514791 14
-1.9362369 0.61676639 -4.7214317 11
-1.9026222 -0.083782509 -3.8442254 8
-1.8996656 0.56707633 -3.8724365 11
-0.14665145 0.76738954 -3.9426713 12
0.93244237 0.79742038 -3.9973021 12
-1.869375 1.0078344 -3.9045081 13
0.91203177 1.4303523 -4.0313044 14
-1.9435644 -0.073340908 -3.564764 8
-0.98638839 -0.062685356 -3.7732515 8
-0.33646733 -0.051012263 -3.8416791 8
0.021578133 -0.036645025 -3.6883693 8
0.32633358 -0.036894307 -3.890873 8
-1.9345198 0.13459523 -3.5862923 9
-0.9312529 0.14172734 -3.7844071 9
-0.080147326 0.15537165 -3.8526549 9
0.05423075 0.15878315 -3.6944222 9
0.32092208 0.16409664 -3.8801079 9
0.92724741 0.18013652 -3.8987088 9
1.0350113 0.18391259 -3.7544727 9
1.5218914 0.19961499 -3.7898579 9
-1.9136503 0.34770435 -3.7463493 10
-0.97662038 0.34599572 -3.7839828 10
-0.16537768 0.35542423 -3.8459539 10
-0.024823248 0.35803562 -3.8557458 10
0.93993247 0.38347816 -3.9045916 10
-0.98601621 0.55043286 -3.8032365 11
-0.15413314 0.55743992 -3.8731484 11
0.0026939511 0.54871523 -3.7086282 11
0.93546307 0.58707839 -3.9397163 11
1.3834288 0.59516227 -3.7931333 11
-1.9540641 0.76509851 -3.6189537 12
-0.99259824 0.75755036 -3.8156872 12
-0.0040196776 0.74710315 -3.7270041 12
1.7753618 0.82395661 -3.8525891 12
-2.0664186 0.98286057 -3.6122975 13
-1.9625902 0.98611796 -3.6868663 13
-0.99859279 0.96671498 -3.8258114 13
-0.14835817 0.97018248 -3.9136395 13
0.93443853 1.2075623 -3.9552913 13
1.7594962 1.2406473 -3.8619628 13
-0.99650091 1.3942667 -3.8728714 14
1.016952 1.3918122 -3.8212113 14
1.9651794 1.4731239 -3.8871055 14
-1.9729373 1.441305 -3.8098459 14
