# .PCD v0.7 - Point Cloud Data file format
VERSION 0.7
FIELDS x y z intensity
SIZE 4 4 4 4
TYPE F F F F
COUNT 1 1 1 1
WIDTH 1272
HEIGHT 1
VIEWPOINT 0 0 0 1 0 0 0
POINTS 1272
DATA ascii
0.70611918 -0.043781206 -3.5374453 8
1.8393641 -0.044802919 -3.5376043 8
2.0129302 0.11206736 -3.538703 8.5
1.7693812 0.17174782 -3.532234 9
2.2625496 0.21092133 -3.5391531 9
-1.3856218 0.24466112 -3.5399747 9.5
0.61814213 0.34028557 -3.5318995 10
1.5810702 0.37285161 -3.5381386 10
2.1716249 0.38729769 -3.5310833 10
2.2046626 0.38845873 -3.5364697 10
-2.2422252 0.48554736 -3.5300846 10
0.66052771 0.4834986 -3.5301702 11
0.61414897 0.54037791 -3.532454 11
0.65950418 0.54084331 -3.5352387 11
1.6759468 0.55390131 -3.5395145 11
1.8046573 0.5588069 -3.53929 11
2.2619252 0.59718257 -3.5363214 11
0.68636727 0.70924777 -3.5341511 12
0.7107963 0.70983458 -3.5365915 12
2.0451131 0.70673853 -3.5370748 12.1735
-1.3963895 0.81129408 -3.5360515 12
-1.6080523 0.82170105 -3.5348814 12
2.3708909 1.2356969 -3.5333345 13
-1.6554236 1.2511215 -3.5369997 14
3.426146 1.2743589 -3.5368738 13
3.3819575 1.3486096 -3.5319998 13.5
-7.4194183 1.4128765 -3.5332177 12
-2.4481971 1.4698583 -3.5378647 14.0165
-7.8615575 1.790226 -3.5347612 13
-1.3744421 -0.081434518 -3.526855 8
1.6930177 0.013768494 -3.5299106 8
1.5669003 0.023912497 -3.5223057 7.5
-1.3645781 0.10490046 -3.5252993 9
0.66655356 0.10266901 -3.5280259 9
1.6251867 0.16922446 -3.5271137 9
0.96398127 0.21878576 -3.5224385 8
0.65443826 0.29372573 -3.5295331 10
1.5761981 0.32096732 -3.5231073 9
0.67772126 0.35028332 -3.5291891 10
-2.3389096 0.48770088 -3.5259309 10
-2.4516921 0.49056581 -3.5264194 10
0.65494227 0.52818495 -3.5279932 11
0.72838318 0.52865088 -3.5206409 11
0.76875657 0.54739654 -3.5283647 10.5
0.6049726 0.56026351 -3.5220635 11
-2.6687956 0.58867341 -3.520354 10.5215
3.161346 0.60676026 -3.5268607 10.165
-2.2440152 0.74831724 -3.5228333 11.5
3.2039661 0.76385629 -3.5220232 11
-1.2593416 0.93677199 -3.5239611 12
2.3276196 0.97960281 -3.5270791 12
-1.3670292 1.0066105 -3.5273051 13
1.94243 1.0156753 -3.5233853 12.5
3.1185169 1.0160779 -3.5251734 12
3.3919115 1.1043514 -3.5291495 12
3.426435 1.1084052 -3.5247772 12
1.9697161 1.1843091 -3.5222683 13.666667
2.3203356 1.1976177 -3.5238259 13.5
1.6812866 1.2060132 -3.5226674 14
-3.0635314 1.2256989 -3.5211389 13
3.1516199 1.3113068 -3.529279 13.5
-1.5681815 1.3666325 -3.526166 14
-1.5549386 1.3659017 -3.5291262 14
3.0908041 1.3809031 -3.5277641 14
-2.3673244 1.3918079 -3.5250835 14
3.4125662 1.4352626 -3.5277605 14
-1.6006463 1.4692281 -3.5264583 14
-5.7671833 1.4902419 -3.5266387 13.024
-3.043726 1.5503054 -3.5207069 14.017499
-2.5921021 1.6042031 -3.5225036 14.014999
-7.3578868 1.7167118 -3.5230215 13.027
1.8127861 -0.031053185 -3.5144298 8
1.8545946 -0.030564561 -3.5160863 8
0.79469156 -0.0051123053 -3.5114779 8
0.7004782 0.072988227 -3.5168891 8.666667
0.81093961 0.084139124 -3.5188928 8.5
0.61958003 0.10231838 -3.5108874 9
0.59145826 0.15657775 -3.5113866 9
-2.5298347 0.21980415 -3.5183516 8.5209999
0.96521074 0.30927673 -3.5136616 9
1.6201929 0.32178399 -3.5161788 9
0.62916452 0.35908473 -3.5141733 10
2.5897546 0.37185723 -3.510282 8.666667
-1.2428855 0.38845405 -3.5117517 9.5
2.9059868 0.38798928 -3.511122 8.666667
0.76606733 0.47944307 -3.5174842 10
3.1096077 0.52621973 -3.5199647 9.5
-1.4707309 0.5485394 -3.5113208 10.5
-1.3497599 0.54617554 -3.5166895 10.5
1.8538213 0.59037644 -3.5154955 10.5
2.0475049 0.60142207 -3.5137708 10.5
2.353447 0.62137854 -3.5176344 10.5
2.6548648 0.64264607 -3.5181637 10.5
-3.4021955 0.66612083 -3.5176919 11.450571
2.9492431 0.66551155 -3.5185032 10.5
-3.2584429 0.75015092 -3.5110505 12
-2.3282013 0.75205004 -3.5107541 11.5
3.2381225 0.76683533 -3.5194542 11
1.6964091 0.78648305 -3.5128958 12
2.1983628 0.82267761 -3.518528 12
-2.3911724 0.84611535 -3.5145426 12
-1.4816216 0.86961877 -3.5134284 12
-1.3779117 0.86341214 -3.5161014 12
0.79850328 0.95350349 -3.5157821 12.5
-1.5879431 1.0194033 -3.5176234 13
1.6855103 1.0640749 -3.5145361 13
-1.4915687 1.1150982 -3.5181572 13
-1.5415211 1.1591831 -3.5177693 13
-1.2881221 1.1766188 -3.5151782 13.5
-2.3647428 1.2069168 -3.5143712 13
-1.5030276 1.2793009 -3.5141132 14
-1.4870216 1.2784592 -3.5186749 14
-1.4657327 1.2753381 -3.5149918 14
-7.8483958 1.4150652 -3.5122764 12
2.5827026 1.5266198 -3.5132854 14.172
-5.7492838 1.54456 -3.5113623 13.0235
-2.5565789 1.5769563 -3.5186782 14.015249
-6.6277037 1.6095952 -3.5132515 13.02575
-7.0572004 1.6721963 -3.5198834 13.0265
0.69544101 -0.043452248 -3.5077183 8
1.6272762 -0.033227876 -3.5090611 8
0.71949399 0.17133333 -3.500237 9
1.8121394 0.29178581 -3.5089736 8.333333
-2.4454436 0.30797288 -3.5022337 9
-2.3317833 0.30770487 -3.5004563 9
-2.2360921 0.30767411 -3.5055113 9
2.325057 0.31201667 -3.5036228 8.333333
2.0595276 0.32458103 -3.5059314 8.5
-1.29039 0.35067636 -3.5007224 10
-3.0649014 0.45606968 -3.500993 10
-1.624483 0.52531517 -3.505337 11
-0.16444269 0.55041289 -3.5020385 11
-1.3585374 0.56734973 -3.5015078 11
-1.2582637 0.62062603 -3.5070455 11
-1.5022477 0.78879488 -3.5048342 12
-1.3604755 0.78515685 -3.5088043 12
-1.619844 1.0204492 -3.5084715 13
-7.419116 1.0467204 -3.5066922 11
-3.2531114 1.0912631 -3.502198 13
-1.512925 1.1151377 -3.5071933 13
-5.7552257 1.1745689 -3.5053923 12.024
-3.0978394 1.2272713 -3.5040362 13
-7.6581378 1.5776882 -3.5086849 12.5275
-3.0059147 1.6566564 -3.5087626 14.0165
-3.0588698 1.7431782 -3.5077188 14
0.72745335 -0.059118062 -3.4909697 8
-2.4331064 0.12918659 -3.4933815 8
-0.10721388 0.12234768 -3.4987915 8.5
-2.3360014 0.13122313 -3.4956803 8
-2.2438536 0.13318452 -3.4927065 8
-1.2979157 0.15497932 -3.495276 9
-1.249493 0.15549612 -3.4909713 8
-1.4651486 0.22946933 -3.4925997 8.5
-1.3418747 0.23119208 -3.4928834 8.5
-1.4321626 0.28968224 -3.4990284 9.5
2.9679699 0.29013026 -3.4999266 8
-1.5146747 0.35411495 -3.4909811 10
-0.12533577 0.42689753 -3.4970067 10.5
0.10390086 0.54992324 -3.4993792 11
-1.5284045 0.65184349 -3.493042 11.5
-7.8666425 0.68278259 -3.4995177 10
-7.4256945 0.68596864 -3.498646 10
-0.14378923 0.73607224 -3.4933221 12.5
-0.12253907 0.73541331 -3.4909449 12.5
-1.5761876 0.75442231 -3.4993453 12
-1.5933588 0.79578805 -3.499536 12
-1.5693541 0.79455483 -3.4995193 12
-0.12956633 0.92422855 -3.4903877 14
-7.839622 1.045207 -3.4950745 11
-2.9466681 1.726019 -3.4971588 14
-7.8945193 1.792895 -3.4932573 13
-0.42842662 -0.10019844 -3.4852841 7
0.67597675 -0.042972639 -3.4870346 8
-1.2827487 -0.039232731 -3.4871616 8
-0.1480919 0.12193959 -3.4809666 8.5
0.89034939 0.12688334 -3.4894514 8.5
-1.3506205 0.13568851 -3.4801097 9
0.78120136 0.27732912 -3.4887156 8.5
0.10555924 0.30377612 -3.4843698 10
-1.3526406 0.35187358 -3.4875512 10
-1.4840053 0.62582278 -3.4838972 11
-8.0640545 0.69526511 -3.4861615 10
0.89771575 0.69395524 -3.4818907 12
-2.4196091 0.75429237 -3.4820006 11.5
-0.117338 0.92381132 -3.4891286 14
-1.5717022 1.1573187 -3.4896717 13
3.1717324 1.1861266 -3.4803815 12.914625
-2.3421307 1.2002743 -3.4884925 13
-5.7351365 1.2199285 -3.4858582 12.0235
-5.7122831 1.3973706 -3.4807138 13.026
-2.5887804 1.4160382 -3.4815178 14.02125
3.4282432 1.4457433 -3.4877582 14.1665
-7.0220146 1.7217617 -3.4855139 13.026
-7.203126 1.7470335 -3.4891865 13
-7.3862648 1.7737348 -3.4830306 13
-0.23977947 -0.097766437 -3.4747036 7
-1.3476186 -0.078880697 -3.470336 8
-1.5148461 0.057001203 -3.4700732 8.5
0.86865878 0.063792072 -3.4750903 8.1730003
-1.4904469 0.14988917 -3.4764705 8
-0.1247541 0.30308527 -3.4787667 10
0.093264058 0.30332407 -3.479738 10
0.83368367 0.31197494 -3.4718618 10
-7.4042673 0.32210076 -3.4792745 9
-1.5617981 0.35605505 -3.4786148 10
-1.4797429 0.38802204 -3.4767616 9.5
0.84552491 0.43625849 -3.4709766 11
0.89762032 0.54615086 -3.4708273 11
-1.5611918 0.55173063 -3.4702778 11
-2.4993405 0.66717374 -3.4767091 11.021
0.85045356 0.68979883 -3.472522 12
-3.067472 0.96375132 -3.4730499 12
-7.4046869 1.0448116 -3.4739134 11
2.8894248 1.2350386 -3.4703331 13.17
-1.1804148 -0.1063857 -3.460078 7
1.3910795 0.0669524 -3.4601374 8.1689997
1.1008599 0.12842111 -3.4673445 8.5
0.74619913 0.20985055 -3.4638257 8
1.0348829 0.39461547 -3.4615796 10.333333
-1.5792825 0.57312083 -3.4651499 11
1.0401715 0.78480452 -3.4639921 12.666667
0.86910051 0.88136035 -3.461719 13.5
1.012113 0.9581331 -3.4682932 14
-3.0054069 1.214324 -3.4674022 13
3.4543481 1.2658975 -3.4640419 13.162999
-7.4292107 1.4113319 -3.4624321 12
-7.3337564 1.5615016 -3.4666204 12.693833
-6.578054 1.6565807 -3.4662101 13.025249
-1.567008 -0.079823434 -3.4567995 8
-1.5527658 -0.04183419 -3.4573154 8
1.3595119 0.10976265 -3.4596496 8.333333
-1.5501115 0.15553282 -3.4516001 9
1.6613867 0.16870286 -3.4503953 8.75
-1.5312045 0.35345834 -3.4575615 10
-7.3934593 0.68408024 -3.4530942 10
1.3635336 0.76209193 -3.4562559 12.333333
-3.8683665 0.81252486 -3.4573257 12
-2.9662094 0.95457089 -3.4569366 12
1.3893164 0.98689258 -3.4503281 14
-5.69485 1.0959924 -3.4595757 12.026
-3.4065931 1.1068125 -3.4556677 13.022249
1.6150532 1.2077447 -3.4587109 12.5
-8.0653868 1.4394643 -3.4509733 12
-7.7390661 1.4484578 -3.4579246 12
-7.9311056 1.4729421 -3.4530852 12.0275
-7.3699808 1.6272955 -3.4525619 13.029
-3.0088646 1.6265856 -3.4515061 14.017001
-7.7081194 1.6765411 -3.4516001 13.0295
-5.9020758 1.8201157 -3.4504597 14.024501
-1.2518383 -0.10622459 -3.4401896 7
1.5146189 0.12172443 -3.4417379 8
1.9053215 0.1396579 -3.4438059 8.5
1.3641673 0.41097751 -3.4495778 10.333333
1.6287888 0.43940791 -3.4429893 10.666667
-3.0790963 0.58182812 -3.4454567 10.5
-2.9922261 0.70254803 -3.4428689 11
1.5805573 0.82266098 -3.4427905 12.666667
2.5920296 1.1927348 -3.4445608 13.503917
2.4164307 1.3533887 -3.4409521 13
-5.8315868 1.4686021 -3.4457822 13.0245
-8.0615864 1.7284784 -3.4475455 13.03
-8.4348536 1.7838917 -3.441958 13.0305
-8.3997555 1.7997741 -3.4480474 13
2.3493757 0.075943969 -3.4371881 8
2.1979928 0.14496632 -3.4360814 8.5
1.7480283 0.3376345 -3.4385509 10.1665
2.0036876 0.41803443 -3.4334755 10.5
1.9472704 0.62341183 -3.4393253 12
1.9507351 0.62361044 -3.4383979 12
-7.7042694 0.70358026 -3.4387052 10
-7.8148613 0.71058309 -3.4342186 10
2.3202908 0.78742683 -3.4333198 12
1.6038662 1.0055362 -3.433491 14
-7.663662 1.0677704 -3.434839 11
-7.7995844 1.080332 -3.4393237 11
2.7862625 1.0814471 -3.4380143 13
2.8654556 1.086504 -3.4369895 13
3.3837428 1.1255109 -3.4388611 13.1685
2.7864442 1.2221047 -3.4309464 13
-8.1371994 1.4477931 -3.4389861 12
1.6135149 0.027213581 -3.4268124 7.5
2.4041457 0.22146146 -3.4294231 9
2.452553 0.29634643 -3.4223435 9.5
2.2974982 0.43390936 -3.425015 10.5
2.4650266 0.44410902 -3.4225404 10.5
2.6150243 0.52825636 -3.4216118 11
1.6270679 0.61057693 -3.4276245 10.5
-3.7406127 0.703641 -3.4233358 11.52375
2.4571095 0.74147993 -3.4275503 12
2.6177771 0.83519721 -3.4279881 12
2.7760129 0.93155575 -3.424937 12.333333
2.4302673 0.96384513 -3.4240975 13
2.8852375 0.97282743 -3.4226477 12
2.5476437 0.99431336 -3.4211254 13
2.3276143 1.026046 -3.4285171 13.5
2.5476468 1.0567484 -3.4218223 13.5
-8.0573568 1.0642892 -3.4283745 11
2.4693291 1.12313 -3.4295838 14
2.317306 1.139454 -3.4235671 12
2.3745522 1.1440673 -3.4281089 12
-5.8223858 1.1516143 -3.4255328 12.0245
2.1204894 1.2280366 -3.4261749 12.5
2.6011102 1.3421628 -3.4265349 13.671
-2.9521275 1.3792925 -3.4246955 13.594286
-8.1344547 1.3845869 -3.4244215 12.02925
2.4242077 0.74089003 -3.413244 11
2.5005665 0.95276129 -3.4197595 12.5
1.828239 1.2099172 -3.4175928 12.5
1.6570097 1.3009206 -3.41939 13
-6.8575525 1.6106179 -3.419312 13.0265
2.3416834 0.73567331 -3.404114 11
2.69784 0.79507864 -3.4062796 12
2.7616687 0.79881752 -3.4056244 12
2.5793214 0.89200366 -3.4087934 12.5
1.6607804 1.1007649 -3.4068005 12
-7.7791052 1.7454515 -3.409956 13.028
-7.6222544 0.33133107 -3.3999655 9
2.4816251 0.62454635 -3.3963158 11
2.5976348 0.62928915 -3.3986399 11
1.6692469 0.70574331 -3.3906209 11
2.0394013 0.71991765 -3.3903654 11
2.4448881 0.78007317 -3.3968391 12
2.6000731 0.93610311 -3.3960338 12
-3.8684332 0.98930341 -3.3958223 12.690999
-7.4468622 1.3345926 -3.3914943 12.0275
-7.9716992 1.7990758 -3.3908398 13
-8.5670996 1.8222338 -3.3931704 12
-7.7648726 0.33652112 -3.386719 9
2.5834286 0.58242977 -3.3840728 11
2.70436 0.58848548 -3.3887367 11
2.1135945 0.59230447 -3.383935 11.664001
2.3971496 0.62077481 -3.3877933 11
1.7902244 0.64525503 -3.3880856 10.666667
-8.1609697 0.70169717 -3.382293 10
2.057652 0.71986711 -3.3819211 11
-2.8344016 0.94180238 -3.3857465 12.2226
2.4852431 1.2196187 -3.3822281 13.1715
-7.7643366 1.3720855 -3.3844786 12.028
1.9564673 0.13140211 -3.370971 8
1.6979395 0.31907749 -3.3742354 9
1.8151405 0.32216814 -3.3726814 9
1.7687943 0.51332057 -3.375128 10
2.3993258 0.70741951 -3.3719819 12.1715
-8.1202698 1.0691906 -3.3706062 11
-2.4996505 1.0805689 -3.3729699 12.688
-3.8714421 1.3585824 -3.3748226 14
-8.1243191 1.7921532 -3.3789101 13
-7.6020832 1.800023 -3.3790152 13
2.0985146 -0.059406333 -3.3626716 7
1.8475053 0.032679535 -3.3608973 7.5
1.9503732 0.32580513 -3.3682849 9
8.5300179 2.6419427 -3.3692105 14.1475
1.6667178 -0.066648208 -3.3528302 7
2.0678623 -0.059802048 -3.3582923 7
1.6424446 0.12448467 -3.3538754 8
2.5517547 0.61367887 -3.3502131 11.494667
-3.8729415 0.98524779 -3.3553991 13
2.5598803 0.99924332 -3.3555534 13.3613
2.374264 1.2073923 -3.3567045 13.172
-8.1192217 1.4107708 -3.3589959 12
-8.1499643 0.6633383 -3.3469691 10
-8.1034908 1.4905727 -3.3445599 12.028
-3.1045976 1.7223514 -3.3416855 14
-6.862484 1.8803358 -3.345943 14.0285
7.8822975 2.2874696 -3.342608 14.1465
-3.0945058 0.95535707 -3.3342826 12
2.5696251 1.1878438 -3.3366215 13.5
2.9267483 1.3110919 -3.3302426 14.1655
3.3885729 1.3690636 -3.3383002 13.6675
-8.1573277 1.795282 -3.333714 13
-8.1821241 0.66561317 -3.322763 10
2.8613696 1.0044246 -3.3234355 12.166
2.9132757 1.0109228 -3.3241348 12
-8.0939837 1.0315889 -3.3269763 11
2.4681559 1.1004632 -3.3217881 13
2.9075198 1.1585269 -3.3261726 13
2.8207321 1.2206023 -3.3275132 13.5
2.4695392 1.242581 -3.3223863 14
-3.0884943 0.70237422 -3.3173797 11
2.4776068 0.95878386 -3.3115153 12
2.5923772 0.97242272 -3.3187165 12
9.1192369 0.51694155 -3.3042803 9.1450005
1.7740794 0.65680701 -3.3068132 11.915875
2.6907415 0.9808414 -3.3028653 12.167
2.7458081 0.98765707 -3.3044944 12
-1.389398 -0.10182715 -3.2966607 7
-3.0923858 1.2049397 -3.2963064 13
3.3690767 1.5575465 -3.2970407 14.16825
-8.4874477 1.8073789 -3.2942064 13
-1.4444684 -0.10171738 -3.2824852 7
-1.3085178 -0.10066453 -3.282759 7
2.7132721 0.98070884 -3.2847538 12
-3.1030378 1.7128499 -3.2846797 14
-3.092092 0.95085561 -3.2767799 12
-3.0832973 0.57613832 -3.2692101 10.5
1.6940414 0.77646983 -3.2631135 12.5
1.7486308 0.92975116 -3.2665138 13.7659
1.6879994 0.97604346 -3.2685161 14
-3.8779516 1.3396375 -3.2656853 14.025
-5.3864098 1.9111006 -3.251122 14.026
1.6468432 0.70293564 -3.2447002 12
1.6337596 0.89752048 -3.242358 13.5
-7.6921644 1.8077542 -3.2412708 13.02775
2.0735712 0.742486 -3.2317479 12
1.9736805 0.80100483 -3.2360616 12.5
2.0665996 0.88021797 -3.2346981 13
2.063858 0.94978726 -3.2376466 13.66375
3.3862309 0.95151699 -3.2370403 12.5015
1.9686359 1.005306 -3.2353117 14
2.0640562 1.0180769 -3.2321382 14
-6.1201453 1.8359401 -3.2309005 14.0255
-8.5647898 1.8149148 -3.2254848 12
8.5058422 2.0185127 -3.220329 14.15125
-3.1353128 1.6213537 -3.2083271 14
-8.0985746 1.8095504 -3.2032254 13
-3.0193362 1.3408103 -3.1962199 13.524
-8.1530857 0.701989 -3.1828992 10
-3.0011144 0.86357057 -3.18945 12.024
-3.131006 1.1353911 -3.1891534 13
-3.8871238 1.3290358 -3.1841614 14
-3.8819149 0.78485608 -3.1742907 12
-3.1257074 0.89434546 -3.1753876 12
-3.0797024 0.45071533 -3.1694977 10
-3.1212032 0.65626651 -3.1628006 11
-3.880327 1.082708 -3.1628046 13
-8.1098328 1.4859638 -3.1679904 12.0285
-3.1166298 0.42155647 -3.1522129 10
-8.1161699 1.405821 -3.1526608 12
-3.135885 1.6119641 -3.1500423 14
-8.2624989 1.804515 -3.1582289 13
-3.1065977 1.5902046 -3.1403761 14
-8.1463032 1.4391832 -3.1399066 12
3.369518 1.4385941 -3.1305342 14
4.0842996 1.6148678 -3.130542 14.165
-5.4684429 1.9148359 -3.1390476 14.0265
-8.0890036 1.0302589 -3.1200461 11
-3.1297348 1.1288663 -3.1284392 13
3.3793149 1.5259714 -3.1277759 14
3.7060294 1.5632967 -3.1204317 14
-8.5744104 1.8149461 -3.127877 13
-3.1146243 0.42060411 -3.1101696 10
-8.1239452 0.66486841 -3.1157408 10
-3.1257503 0.88982695 -3.1165211 12
-8.1250496 1.066034 -3.1132348 11
-3.0974114 1.1061381 -3.112792 13
3.5171669 1.3510497 -3.1168065 13.9652
3.4720232 1.447816 -3.1111107 14
3.6649404 1.4733026 -3.1150112 14
3.4977875 1.5377493 -3.1176078 14
3.6556482 1.5562104 -3.1157568 14
-3.1196396 0.65320832 -3.1018341 11
-3.0941517 0.86713457 -3.1008439 12
3.3860183 1.0834541 -3.1021922 13
3.367682 1.2263782 -3.1050725 13
3.4774208 1.237903 -3.1017427 13
3.6717179 1.2607887 -3.1080384 13
3.7059355 1.2646817 -3.1072788 13
3.6968796 1.4766302 -3.1098204 14
-3.1546781 1.6119817 -3.1083372 14.018
3.7454388 1.0533292 -3.0944018 13.1655
3.670157 1.1076369 -3.0945747 13
3.7098389 1.1108298 -3.0906041 13
3.5018506 1.218895 -3.0930021 13.223845
-3.1448565 1.4986309 -3.0915477 14.019
3.879652 1.5813506 -3.0955975 14.165751
-3.0856802 0.63006598 -3.0822396 11
3.3881764 0.86452496 -3.0881345 12
3.7046032 0.88779294 -3.086201 12
3.4947853 0.98185503 -3.0895379 12.5
-3.1500924 1.1295918 -3.0885375 13.018
-8.1109171 1.4822414 -3.0802476 12
-3.1415751 0.88980711 -3.0706723 12.018
3.4460816 1.1836221 -3.0797901 13.1655
-3.0246263 1.417491 -3.0715396 14
-6.3577881 1.8442258 -3.075758 14.0265
-3.0802615 0.39685687 -3.069644 10
3.8004498 1.3257968 -3.0650458 13.66375
-3.0941882 1.677513 -3.0630047 14.0175
3.6109004 0.96252894 -3.0416424 13.165
-3.0207596 1.2256114 -3.0478876 13
-3.018929 1.2251343 -3.0463006 13
-3.0251703 1.413969 -3.0481887 14
3.9007213 1.5235106 -3.0407188 14.1645
-2.9989963 0.84991956 -3.0363097 12
-3.0028572 0.85052574 -3.0394781 12
-3.0832286 1.1779373 -3.0311821 13.0175
3.5502996 1.3691829 -3.0376179 13.666
3.6623194 1.4902109 -3.0384119 14.1655
-3.1340296 1.5926441 -3.031965 14
3.802012 1.1123199 -3.0269868 13.166
-3.8860102 1.3015902 -3.0229893 14
-5.0525265 1.8275151 -3.0228941 14.02475
3.3671198 0.0082513541 -3.0144522 8.1669998
-3.0797911 0.81041563 -3.014159 11.5175
3.4370463 1.0374007 -3.0133426 13.1665
-4.8116384 1.0908695 -3.0192914 13.029
-4.5388842 1.3414501 -3.0148106 13.52825
-3.9653425 0.77794653 -3.0008821 12
-3.1250212 0.88092297 -3.0002444 12
-4.007287 0.96295536 -3.0093112 13
-4.2126064 0.99378276 -3.0060799 12.52725
3.6624222 1.0582641 -3.0044086 13.1655
-3.1323373 1.1164807 -3.0069692 13
-4.2053065 1.3662227 -3.0093043 14.02725
-8.2138472 1.820806 -3.0027974 13
-3.1111505 0.41802841 -2.9901679 10
-3.9012027 0.76942128 -2.9954059 12
-3.908644 1.123904 -2.998399 13
-4.6147184 1.7399726 -2.9913352 14.02375
3.4613128 1.0359523 -2.988472 12
-3.4991293 1.5403048 -2.986263 14.0205
-3.8155236 1.5943966 -2.9859207 14.0215
-4.2430682 1.670854 -2.9892123 14.02275
2.6392102 0.98460239 -2.9745648 13.659167
3.4782467 1.0367043 -2.975709 12
3.4460249 1.2542793 -2.9767938 13.5
3.7795405 1.2780799 -2.9738195 13.409375
-3.3452754 1.5145346 -2.974406 14
-3.4344196 1.5291413 -2.9741566 14
-3.115195 1.5665797 -2.9731464 14
-3.11743 0.64650625 -2.9648693 11
-3.1948814 1.0336565 -2.9609206 13.0195
-4.2359128 1.1614248 -2.9634078 13.02275
-4.6106458 1.2113528 -2.9675457 13.02375
3.4489355 1.3277849 -2.9689095 14
-3.1164889 1.6630547 -2.9607623 14
-4.6843629 1.8435388 -2.9642532 14
2.6564505 0.76940441 -2.9581275 12.159
-4.2334342 0.90979457 -2.9516537 12.02275
-3.3416762 1.0507867 -2.9543283 13
-3.4900942 1.0679721 -2.9596479 13.0205
-3.4281678 1.0605928 -2.9508402 13
-3.8063445 1.1065072 -2.9587996 13.0215
-3.1289327 1.1107322 -2.9550955 13
-3.1498158 1.583221 -2.9581525 14
-4.7634554 1.7811699 -2.9519877 13
-8.5515833 1.8022361 -2.9515305 12
-5.2886639 1.866244 -2.9546916 14.0255
-3.1913028 0.8073976 -2.9489844 12.0195
-3.4839053 0.83441091 -2.9445941 12.0205
-4.6019301 0.9488126 -2.9498627 12.02375
-3.101505 1.0904732 -2.940114 13
-3.0964217 1.1695546 -2.9469559 13
-4.7604218 1.2543877 -2.9402742 12
-3.101011 1.5602589 -2.9453659 14
-4.8112879 1.5887622 -2.9456055 14
-3.3115206 1.6080115 -2.9459894 14.0185
-3.3993561 1.6235032 -2.9435565 14.01925
-3.7941759 1.6882855 -2.9454839 14.0205
-3.7079263 1.7556829 -2.9498303 14.019751
-4.2160668 1.7604657 -2.9446323 14.021749
-8.6586037 1.8220643 -2.940202 13
-4.3846445 1.8683817 -2.9439166 14
-3.2810454 0.36749822 -2.931237 10
-3.1857271 0.5834378 -2.9347656 11.0195
-3.7574248 0.80261922 -2.9391854 11.771375
-3.421813 0.82841909 -2.9356444 12
-3.3351684 0.82051837 -2.9389255 12
-3.0902548 0.92518008 -2.9303873 12
3.7720046 0.96717012 -2.9318726 13.164
-3.1309514 1.1718823 -2.9335029 13
-4.8148704 1.2217284 -2.9304149 12.666667
-4.12919 1.6442871 -2.934571 14.021
-4.5787416 1.688216 -2.9363868 14.02275
-3.4215713 0.37401405 -2.9213774 10
-3.3487473 0.370588 -2.9238288 10
-3.327805 0.59303123 -2.9226882 11
-3.47545 0.60346693 -2.9271352 11.0205
-3.0939715 0.85547698 -2.9229283 12
-3.1379836 0.87621057 -2.9228723 12
-4.7497959 0.99197686 -2.9278321 11
-3.3914964 1.1388341 -2.9205539 13.01925
-3.3055182 1.1912997 -2.9239414 13.0185
-4.6804318 1.6385564 -2.9240353 14.0225
-3.4132428 0.59886807 -2.9180648 11
-3.0848045 0.68393004 -2.9149101 11
-3.1203365 0.92634904 -2.9110124 12
-4.7728186 0.99360478 -2.9129624 11
-4.722239 1.0291554 -2.9179461 12
-4.8947725 1.0472139 -2.9123995 12
-3.7794402 1.1832955 -2.913379 13.0205
-4.2074537 1.2361088 -2.9188159 13.021749
-3.6961489 1.2349672 -2.917289 13.019751
-4.767396 1.2534087 -2.9137583 12
-4.5742488 1.2829853 -2.9185708 13.02275
-4.1242051 1.2863028 -2.9157002 13.021
-4.932621 1.3277963 -2.9193842 13
-4.4169469 1.3216312 -2.9177907 13
3.7572551 1.3405882 -2.9165618 13.498166
-4.6446967 1.3507402 -2.9156454 13
3.8045616 1.3500274 -2.9107113 13.66475
-8.1089802 1.4775176 -2.9163792 12
-3.4000466 1.5128714 -2.9111605 14.021749
-3.7171404 1.5662646 -2.9110646 14.02275
-7.9217739 1.8255417 -2.9140265 13
-3.1311796 0.41716158 -2.9030483 10
-3.087096 0.62361503 -2.9096098 11
-3.1299202 0.64452159 -2.9059637 11
-4.4866471 1.1927311 -2.9067061 12.5
-4.6739416 1.2154298 -2.9014118 12.5225
-4.7565503 1.3648486 -2.9099104 13
-4.8746214 1.3815876 -2.9075673 13.023
-3.3354309 1.5940682 -2.9073038 14.019501
-4.0538836 1.6246006 -2.9070721 14.02375
-3.7276418 1.657357 -2.9032555 14.02075
-4.4190636 1.6901119 -2.9025955 14.02475
-4.7135878 1.744683 -2.9013319 14.0255
-4.8400211 1.8653303 -2.9091485 14
-5.6180344 1.9205375 -2.9044409 14.0275
-3.0844843 0.39521936 -2.8976617 10
-3.1133895 0.6848284 -2.8935583 11
-3.4545252 0.78585643 -2.8926699 11.519501
-3.2962861 0.8202635 -2.8992732 11.5185
-4.5628095 1.0134156 -2.8987081 12.02275
-4.4048967 1.0464193 -2.8951318 12
-4.631361 1.0696155 -2.8918436 12
-4.7488093 1.0818846 -2.8915684 12
-3.7073519 1.0983793 -2.892211 13.02275
-4.1528826 1.7294357 -2.8957105 14.022
-3.1532223 0.64655882 -2.8862636 11.0185
-3.8480952 0.81795186 -2.8881519 11.52075
-4.1910729 0.84764892 -2.8895671 11.521749
-3.6830802 0.85048854 -2.8881257 11.519751
-4.1091056 0.88638413 -2.8852761 11.521
-3.3280742 1.1124884 -2.8823042 13.019501
-4.0471649 1.1395581 -2.8895736 13.02375
-4.4146938 1.1858354 -2.8878617 13.02475
-4.7061043 1.2233486 -2.8834076 13.0255
-4.5153084 1.7932694 -2.8893681 14.023
-8.3997431 1.819361 -2.8885221 13
-4.7079182 1.8282514 -2.8863258 14.0235
-4.4548631 1.8726918 -2.8824241 14
-8.1399994 0.70452154 -2.8779891 10
2.6077363 0.75050318 -2.8713822 12
-4.3998904 0.77586102 -2.8797829 11
-4.4740896 0.78156698 -2.8784745 11
-4.6232328 0.79310668 -2.8733594 11
2.5911264 0.81878668 -2.8788126 12.5
-4.1298151 0.90767032 -2.8784971 12.024
-4.4094419 0.93548948 -2.8772206 12.02475
-4.6998177 0.96485174 -2.8717499 12.0255
2.5782285 1.0248948 -2.8711743 14
-3.1467974 1.089542 -2.8771882 13
2.8557177 0.78246558 -2.8625951 12.1575
-4.6565995 0.7965883 -2.8685529 11.0225
-4.7373199 0.80203056 -2.8698161 11
3.806541 0.94852257 -2.8675582 12.499001
-3.7122371 1.1555338 -2.8688197 13.02075
-4.1408672 1.2073114 -2.864326 13.021999
-4.6042633 1.2659152 -2.8600545 13.023251
-8.113595 1.3997765 -2.8660898 12
-3.3155348 0.75563025 -2.855547 11.519501
-3.1368067 0.8548758 -2.8570952 12
2.5849919 1.0236052 -2.8585718 14
7.8461614 2.2304533 -2.8541427 14.145
-3.1379588 0.39688858 -2.8449755 10
-3.7032206 0.78609538 -2.8459473 11.52075
-4.0874491 0.88238347 -2.8445163 11.771875
-4.5936356 0.99543035 -2.8400426 12.023251
-8.1011858 1.0306882 -2.8426328 11
2.9586482 1.0524722 -2.8407733 13.906876
-4.9055691 1.8692503 -2.8424165 14
-3.1246412 0.62319559 -2.8344693 11
-8.1425362 1.4327254 -2.832639 12
-4.8741646 1.1616805 -2.8248596 12.524
-8.3351755 1.8319341 -2.8193448 13
-8.1094713 0.66867375 -2.8009691 10
-8.1275387 1.0650476 -2.7997954 11
-5.011342 1.8747778 -2.7911096 14.024501
-8.6308622 1.4345919 -2.7842448 12
3.7738237 1.2443289 -2.7711303 13.6635
-4.5598865 1.8782773 -2.779619 14
-8.2477331 1.3844126 -2.7633173 12.031
-8.6782045 1.4405448 -2.7664249 12
-4.5936122 1.8789918 -2.7369211 14
-5.4423385 1.8737173 -2.729831 14.0265
-8.1388969 0.7056039 -2.7115486 10
-8.1217003 1.0636036 -2.7137177 11
3.8643274 1.2895293 -2.7143106 13.657749
-8.3253107 1.4530392 -2.7159646 12
-8.5257158 1.4789959 -2.7196624 12
-8.4788666 1.8285224 -2.7171869 13
-8.562583 1.1065677 -2.703655 11
-8.155921 1.4310066 -2.7057292 12
-8.4749489 1.0979338 -2.6990378 11
3.8337033 1.3639777 -2.6990805 14.162499
-8.1144857 1.47249 -2.6953571 12
-8.298708 1.0806036 -2.6871827 11
-8.5854759 1.4338861 -2.6840827 12
-8.5860834 1.7906464 -2.6844699 13
-8.0682764 1.0312296 -2.6735559 11
-8.0946217 1.3971151 -2.672123 12
-8.2281723 1.4866006 -2.6761167 12
-8.3066721 1.496742 -2.6782172 12
-8.5806828 1.7884336 -2.6770072 12.5
-8.0805864 1.8397493 -2.6708305 13
-8.68081 1.8169677 -2.6610577 13
-8.0875483 1.0315977 -2.6456194 11
-8.6732416 1.4380906 -2.6410763 12
-8.5121851 1.5237961 -2.6402009 12.030251
-8.0810499 0.67175168 -2.6370254 10
-8.5992069 1.7905463 -2.6337328 13
-8.1355162 0.70602775 -2.6277516 10
-8.5867586 1.4323611 -2.6296351 12
-8.6835289 1.4970733 -2.6113164 12
-4.6984658 1.8850325 -2.6163242 14.0235
7.8165159 2.2019343 -2.6156473 14.14425
-8.4194326 1.4386355 -2.6075459 12
-8.1974306 1.410354 -2.5949607 12
-8.63025 1.4642292 -2.5981998 12.031
-8.459568 1.0684425 -2.5893297 11
-8.4726801 1.8442477 -2.5800393 13
-5.1873274 1.8868557 -2.5846257 14.0255
-8.2640877 1.0498666 -2.5727158 11
7.011302 0.47901413 -2.5609574 8.1475
-7.9617991 0.86331546 -2.5651083 10.535749
-8.5856333 1.4300386 -2.5564215 12
-8.6145391 0.3302581 -2.5410562 9.0310001
-8.6718111 1.4936382 -2.5216014 12
-8.5815306 1.8382453 -2.5288711 13.03125
-5.7499132 1.9175653 -2.5243952 14.02775
-8.0648851 0.67351878 -2.5157981 10
2.9892726 0.96762365 -2.5186894 13.655
-8.130352 0.70624071 -2.5087345 10.0305
-8.1820021 1.849443 -2.5068657 13
3.8085315 1.2507621 -2.484673 13.496999
-8.5998936 1.7848928 -2.4873722 13
-4.857852 1.9001399 -2.489742 14.02425
-5.8610859 1.9314201 -2.4833899 14.02925
-6.0776405 1.9840294 -2.4878743 14.0285
8.5300407 2.3908103 -2.4806428 14.148251
-5.4599309 1.9391038 -2.4748447 14.02625
-7.4630566 1.950284 -2.4797165 14.03075
3.8065505 0.84302628 -2.4629076 12.16475
-5.2575626 1.8888665 -2.4659081 14.026
-8.0966101 0.65871882 -2.4597337 10.0315
-8.0627737 0.67446756 -2.4544082 10
3.7581639 1.2381115 -2.4497836 13.912625
-7.1539979 1.9602906 -2.4412305 14.0295
-7.7770514 1.007513 -2.4367845 11.036
3.7872658 1.3130288 -2.432308 13.498
3.7505872 1.3129698 -2.4241197 13.7636
-6.1745052 1.9918387 -2.4202423 14.03
-6.8699317 1.9718069 -2.41207 14.0285
-5.3008461 1.9784881 -2.4133151 14.0255
-8.6370935 1.5351369 -2.3878481 12.031
-6.4140215 2.0401042 -2.386601 14.0305
-7.8902111 0.98655045 -2.3714921 11.0315
-8.6785898 1.8087929 -2.3674023 13
-7.8072672 1.995165 -2.3585691 14.0325
3.7956629 1.2325586 -2.3365872 13
-8.6721182 1.4343995 -2.338352 12
-5.750906 1.9776602 -2.3391156 14.0275
3.8068161 0.83127618 -2.3241136 12
3.8617764 1.2165248 -2.3219874 13.584357
3.8391004 1.3017516 -2.3261404 14.16125
7.8588958 2.1896019 -2.3285093 14.14325
3.7549729 1.0795004 -2.3111436 13.162251
-5.813828 1.9960568 -2.3178489 14.0275
-8.6405277 0.33322451 -2.3055627 9.0325003
3.7720871 0.79512006 -2.2940266 12.16325
-8.6177816 1.8393551 -2.2871156 13
-7.3034725 1.9665382 -2.2802362 14.030251
-8.0511208 0.67626542 -2.2789621 10.031
-8.603302 1.7735405 -2.2769804 13
-7.3476787 1.9864757 -2.2708132 14.030251
-5.5821519 2.0208428 -2.2764366 14.0265
-8.6328411 1.8589914 -2.2572014 13
-8.3266268 1.8632891 -2.2431657 13
-6.2236476 1.9957043 -2.2422917 14.0295
-7.9417238 2.0153816 -2.2318196 14.033
2.9754257 0.91548574 -2.2054665 13.65325
-8.5650902 2.1344657 -2.2064967 14
-7.8460999 1.0101357 -2.1910977 11.031
3.7914047 1.311103 -2.199424 13.5
3.7702279 0.78542686 -2.1854341 12
3.7910805 0.78729194 -2.1836593 12
3.7499645 1.2550515 -2.1891716 13.5
-8.6018286 1.7746817 -2.1895862 13
3.8114038 0.81981516 -2.1761873 12.164
-8.6321516 1.5297198 -2.1735113 12
8.4092083 2.3368709 -2.1702623 14.1475
3.7518747 1.3456208 -2.1652524 14
-6.0094872 2.0171945 -2.1669273 14.0285
3.74705 1.1532457 -2.143676 13
3.8127942 0.81646645 -2.13572 12
6.8913579 0.081027769 -2.1293337 8.1514997
-7.0392385 2.1341498 -2.1289182 14.03625
3.8363514 1.2667419 -2.1156664 14.1605
-7.5196304 1.9996848 -2.1123309 14.031
3.8168533 1.3186888 -2.1037879 14.162501
8.1404648 2.2465911 -2.1081135 14.14225
-7.9168758 0.82076955 -2.0967958 10.532249
-8.6767225 1.8022417 -2.0914695 13
-6.4853973 2.0351942 -2.0942907 14.031499
3.8181717 1.133794 -2.0895028 13.162501
3.8075089 1.2626759 -2.0826795 13.496999
3.8187137 1.3947928 -2.0892951 14
-8.6026621 2.1377769 -2.0869083 14
-7.2273417 2.0170605 -2.0567329 14.03
3.8020639 1.1920437 -2.0465748 13
-8.6761799 1.4324813 -2.0424428 12
-8.5875292 2.1334779 -2.0430059 14
3.8140898 0.8085475 -2.0362737 12
3.7441041 1.2605882 -2.0360062 13.829167
-6.0119839 2.0047696 -2.0011797 14.029
-8.6115599 1.8321395 -1.9814944 13
-8.4721003 1.8787308 -1.9687507 13
-5.6258135 1.9994622 -1.9633849 14.0275
-1.1570066 0.16236216 -1.9513427 8.0214996
-8.2161484 1.0208205 -1.9545009 11.033
3.7655091 1.0339509 -1.9560094 13.160999
3.7497029 1.1280228 -1.9537952 13.162251
3.7569494 1.2053461 -1.9578295 14.161
-8.5994492 1.7665126 -1.9584481 13
-5.8506384 1.9669476 -1.9259207 14.028749
8.5629206 2.3611534 -1.9239448 14.1465
-8.6857071 1.8574362 -1.912328 13
3.8475652 1.2284697 -1.9036731 14.1535
-8.555542 0.70101035 -1.8930483 10.0335
-2.0179319 0.045450073 -1.8827606 8.0235004
-8.5997505 1.764962 -1.8791305 13
-6.966825 2.1036155 -1.8799516 14.037
3.8405955 1.2281427 -1.8670219 14.1595
-7.6575289 2.0141063 -1.8102245 14.032
-7.9046259 0.65668464 -1.8085368 10.033
6.0876093 0.11705741 -1.7961738 8.1432505
-8.6761656 1.796798 -1.788733 13
2.957664 0.91592187 -1.7784703 14.150499
-8.6756935 1.4312421 -1.7628157 12
-8.5918007 1.762271 -1.7656852 13
-1.9157691 0.087758869 -1.7514693 8.5
-1.9166961 0.3126131 -1.7528486 10
-7.9834108 2.0226288 -1.7551212 14.0335
-0.9880718 0.36507311 -1.7411987 10
-5.8587027 1.9529797 -1.748956 14.0295
8.1884918 2.2368107 -1.7440934 14.141
-1.9187691 0.087421641 -1.738901 8.5
3.7469487 1.2731441 -1.7323186 14.1615
-8.5842304 1.8912655 -1.7337463 13
-0.98772228 0.46210492 -1.7126771 10
2.2398577 0.50955886 -1.7138129 10.164
-7.1837239 2.1437168 -1.7126335 14.03775
0.74015439 0.20886061 -1.704235 8.0035
-0.97646105 0.28935102 -1.7038821 9.0218744
-8.060441 1.00649 -1.7052319 11.0335
-8.6848564 1.8520292 -1.7047126 13
-0.98393619 0.21446255 -1.697035 8.5
-1.9174447 0.2186096 -1.6879523 9.4529285
3.8111153 1.1437553 -1.6867602 13.162499
3.7587719 1.1637472 -1.6896324 14.16
3.8037286 1.3254533 -1.6894677 14.162499
8.5417881 2.3415315 -1.6813427 14.14575
3.8368843 1.0804585 -1.660563 13.160999
3.8277605 1.2499501 -1.663512 14.161
-0.21696113 0.084942557 -1.6554765 8.5037498
0.71081436 0.11172674 -1.6462768 8.5022497
-0.983356 0.27637869 -1.6249205 9
-8.6357031 1.8972528 -1.6210821 13
3.774631 0.99043059 -1.6024442 13.159625
-5.9817743 2.0449479 -1.60867 14.02925
-8.6749277 1.7938997 -1.5981586 13
-8.6029291 1.8248304 -1.59694 13
3.7528274 1.0784259 -1.5873296 13.160999
-8.6782236 1.4312962 -1.5831523 12
-8.599267 1.7579001 -1.5893669 13
-6.7356176 2.0601974 -1.5703644 14.0335
8.8622675 2.3846946 -1.5640507 14.147
-8.5852604 1.3990456 -1.5267769 12
0.73325694 0.022448793 -1.5138822 8.0015001
6.0870953 0.11561181 -1.511428 8.1420002
-8.0335255 0.67224908 -1.5016906 10.034
-6.6151471 2.0353091 -1.5091977 14.0325
0.69593287 0.03311874 -1.4908788 8.0015001
3.8827717 1.1277876 -1.4748663 13.824249
8.9969282 2.4541276 -1.475907 14.1445
-0.98204124 0.16672647 -1.4612625 8
-0.98433125 0.44494689 -1.466028 10
3.7743626 0.8127166 -1.4629741 12
-7.5114613 2.0430274 -1.4665186 14.032
8.2733803 2.2445252 -1.464157 14.14
-0.97422767 0.30164909 -1.4547492 9.1348896
2.2420273 0.45303696 -1.4511999 10.062151
3.7886539 0.81412542 -1.4570713 12
3.7602453 1.047361 -1.4586201 13.5
3.8866234 1.1768224 -1.4501013 14.150249
-8.5879993 1.7582524 -1.4583713 13
-0.9784044 0.22813933 -1.444167 8.666667
0.65684807 0.022720456 -1.4317267 8.0012503
2.9432373 0.86915535 -1.4380058 14.148001
3.8763342 0.98949122 -1.4395213 12.650249
3.7515759 1.1218039 -1.4367955 14
3.8785748 1.1728854 -1.4368632 14
-0.97839618 0.25842839 -1.4242036 9
6.9902916 0.25701743 -1.4269923 8.1477499
2.0937452 0.30298138 -1.421896 8.8065357
3.8763504 1.0084718 -1.428723 12.666667
3.8737793 1.0487828 -1.4282974 13
-6.4460649 2.062036 -1.420397 14.0315
-8.5467854 2.1290579 -1.4256141 14.035
8.4793701 2.3113961 -1.4245986 14.145
1.1511786 0.069177173 -1.4172708 8.5889282
-6.3740993 2.043009 -1.4191968 14.03125
-7.1987443 2.1343172 -1.4162245 14.03875
-8.2629995 1.013194 -1.4090077 11.0355
3.8345218 1.210566 -1.4000208 14.16
-8.5775452 1.3982674 -1.4049648 12
-8.682394 1.845315 -1.4047847 13
0.66661686 0.058064438 -1.395848 8.6014004
-1.9195561 0.18127714 -1.3922116 9.4645634
0.80865216 0.27941221 -1.3983607 8.6696663
-0.14460324 0.098297909 -1.3827231 9.0029497
0.81523788 0.1001526 -1.3883041 8.3348341
4.5298405 0.25146815 -1.3816503 9.1434994
-8.5666227 1.0428423 -1.3793138 11
-7.8972235 2.0475688 -1.3683448 14.0335
1.2952292 0.21467136 -1.3465327 10.091334
3.8099623 1.2663728 -1.3212216 14.16125
0.78405684 0.04030773 -1.3137076 8.0010004
3.8178086 1.0954598 -1.318532 13.16125
0.78075641 0.092884041 -1.3009818 8.5012503
-6.864913 2.0780046 -1.3081647 14.0345
-8.597249 1.8208891 -1.2940645 13
-8.6283998 1.8896792 -1.2943227 13
3.851037 1.0359305 -1.2826624 13.1595
3.874969 1.1532888 -1.2802523 14.149
-8.5975933 1.7518618 -1.2856967 13
0.85216552 0.26644602 -1.2786665 9.0024996
1.315968 0.095224924 -1.2617952 8.5
-8.6778078 1.7915362 -1.2683017 13.0355
2.2229486 0.056494854 -1.2590618 8.1697502
1.2998121 0.28219151 -1.2547162 11
-7.7498274 0.64471042 -1.2514094 10
-6.2020588 2.0670815 -1.2462139 14.03075
1.3073968 0.17165811 -1.2386247 9.5
6.9972763 0.26505968 -1.2374831 8.1470003
1.2983328 0.34319931 -1.2386026 12
3.818202 0.66365993 -1.2173002 11.661
3.8691478 0.9087404 -1.2156768 12
-7.2748685 2.1441636 -1.2064211 14.0395
-1.8386133 0.19212078 -1.1913573 9.5284996
3.8979588 0.79551017 -1.1821086 11
2.2404943 0.49780643 -1.1778165 10.5
3.7618663 1.0255506 -1.1715291 13.159399
-7.325336 2.1543925 -1.1795627 14
3.8821278 0.56469452 -1.164583 10
3.7709475 1.0149792 -1.1699378 13.65775
-9.5057154 1.8418872 -1.1680592 13
1.2998068 0.16561955 -1.1506335 9.5
1.2947052 0.33099115 -1.1500297 12
3.874208 0.94440949 -1.1565616 12.333333
3.8940163 0.73591363 -1.148314 11
3.8737435 0.56300247 -1.1323149 10
-8.5635214 1.0459981 -1.1345896 11
2.2435782 0.29661876 -1.1212566 8.5
3.8428617 0.74231005 -1.1232882 12
3.8647923 0.74475598 -1.1250789 12
3.8275046 1.0720661 -1.127723 13
3.8734684 1.0655538 -1.1181511 13.727286
3.8073502 1.2329531 -1.1135745 14
-6.5639038 2.0675292 -1.116704 14.0325
-7.7552156 0.64841247 -1.1017977 10
3.9003897 0.83011353 -1.1094346 11.481
3.8743916 0.95974088 -1.1072218 12.5
3.8749008 0.56226885 -1.0956248 10.14775
4.5233116 0.24682781 -1.083267 9.1417503
-8.6742659 1.7900115 -1.083509 13.036
-8.591692 1.8188113 -1.083612 13
-6.570652 2.0734181 -1.0817256 14.03275
-8.5828238 1.7553555 -1.0734571 13
-8.5564404 2.1760588 -1.0701835 14
2.9272747 0.27330408 -1.0683357 10
2.2440414 0.40373278 -1.0662334 9.7041817
2.9584825 0.49547142 -1.0639168 11
2.9545465 0.6069169 -1.0689089 12
-9.5056086 1.8395293 -1.0671673 13
2.9328246 0.27330247 -1.0529922 10
2.2416811 0.39171821 -1.0580257 9.5555553
3.8105102 1.2240235 -1.052212 14
-8.5714645 1.3992152 -1.057254 12
-6.817935 2.0612504 -1.0507975 14.03425
-6.2977557 2.076453 -1.0568807 14.0315
2.9402101 0.65885705 -1.0495211 12.5
2.9461918 0.62494451 -1.0399941 12.344701
-8.6249666 1.8851925 -1.0334439 13
-8.3889475 2.2362127 -1.0315263 14.0415
-8.6802788 1.8390177 -1.0254242 13
2.9391408 0.43534666 -1.002735 11
-7.3384748 2.1526427 -1.0036302 14
2.9223433 0.30589294 -0.97109872 10.4775
-8.5969687 1.7479272 -0.97866809 13
-8.3954515 2.2366669 -0.96874177 14
1.2916821 0.17368314 -0.95364505 10.004982
-8.5875568 2.1808262 -0.95076799 14
2.2301474 0.56837088 -0.94032526 12
3.8547659 1.0952529 -0.92760372 13.824582
3.8300972 1.1259557 -0.91445994 13.5
3.8262234 0.41203299 -0.89753604 10
3.8296046 0.88388097 -0.8956995 12
-6.9828329 2.0909131 -0.88635743 14.036
3.8258314 0.48948058 -0.87823367 10.5
-8.5797997 2.1778958 -0.87619662 14
2.9224627 0.69792932 -0.86675286 13
-8.6555643 2.1934402 -0.86480784 14
-8.5587807 1.0507637 -0.83356845 11
2.9149833 0.26577273 -0.82925642 10
2.9195085 0.69502872 -0.82919127 13
-8.6855955 1.8376815 -0.8229425 13
-8.6207962 1.8821698 -0.82215762 13
2.9313424 0.50167829 -0.81626987 11.4
-7.7531519 0.6552431 -0.81742775 10
3.7554269 1.0818768 -0.81892467 13.824582
-8.5833435 1.8170552 -0.80313611 13
-9.5127573 1.8358437 -0.80631477 13
-6.7050419 2.0831878 -0.79021549 14.033751
-8.3957109 2.2319679 -0.79748404 14
1.2859919 0.17013094 -0.78224939 10
1.2864556 0.34090051 -0.78320551 13
2.0845919 0.07812617 -0.77723074 8.6452503
3.8313413 0.25739771 -0.7727747 9
3.8323321 1.1074756 -0.77700996 13.5
2.9211311 0.69113547 -0.76249826 13
3.8469257 0.87393773 -0.76538968 12
-8.5744362 1.7541865 -0.75743592 13
2.9121854 0.26353142 -0.74669695 10
2.9362528 0.53090185 -0.74105895 11.5
3.8977077 0.69042706 -0.74526572 12.157
3.7875834 0.96602774 -0.74048162 13.655583
-8.5661774 1.4015133 -0.74193251 12
-6.4473128 2.0930321 -0.737149 14.03275
-8.6845798 2.1961324 -0.73247671 14.036
3.8873136 1.0797126 -0.72222435 14.153501
2.231863 0.48403534 -0.70022762 11.154445
-7.3448949 2.1479356 -0.70937932 14
-0.28603792 0.25193131 -0.69596708 10
-0.30697215 0.58595085 -0.68418038 14.026
-0.39740688 0.096857347 -0.67212915 8.5
-0.29497325 0.157833 -0.67386127 9.0115004
1.2806424 0.22452964 -0.67074627 11
-0.40355831 0.48744267 -0.67609334 11
-8.5958929 1.7455748 -0.67307472 13
-6.7188263 2.092216 -0.67613649 14.03425
-0.28659654 0.11487112 -0.66764081 8.5
-0.28893876 0.43248993 -0.6626519 11
3.8870623 0.6864655 -0.66124368 12
1.2877407 0.10492972 -0.65169567 9
-0.32216299 0.15715823 -0.65051126 9
1.2734272 0.19803703 -0.65329969 10.710999
-0.3325839 0.4886274 -0.6508162 11
-0.32044983 0.48800161 -0.65099621 11
-0.35755062 0.54586792 -0.6587317 11.01075
-8.5767794 1.8162251 -0.65465117 13
-0.3513751 0.11864851 -0.64769816 8.5
-0.33681273 0.15029332 -0.64601088 8.7606249
-0.40624774 0.24484658 -0.64775777 9.6794996
-4.4149785 0.26147914 -0.64272809 9.0299997
-0.35985637 0.42203984 -0.64384699 11
3.8509576 0.96736109 -0.64725065 13
-0.3281728 0.15724275 -0.63709688 9
-0.31251967 0.26707262 -0.63156724 10
-0.41576266 0.40040794 -0.63039231 11
2.9739141 0.69616777 -0.63182068 13.141001
-8.5524025 1.0540307 -0.63707626 11
3.8397951 1.1078666 -0.63728356 14
-8.6715698 1.7899495 -0.63055706 13.037251
-0.35236943 0.17958325 -0.62594581 9
-0.41176498 0.11164857 -0.61271667 9
-0.34710419 0.3003177 -0.6125598 10
-0.30729485 0.34984896 -0.61856496 10.241233
-0.31974959 0.49880874 -0.61403406 11.75
-8.4048166 2.2299569 -0.61169547 14
-1.7098912 0.090965323 -0.60808867 9.0352497
1.2899636 0.12297536 -0.60064113 9
-1.2984461 0.1910421 -0.60037172 10.666781
-0.42566913 0.48385394 -0.60158825 11.01175
-6.8172474 2.1015921 -0.60492802 14.0345
-0.32617664 0.155082 -0.59215677 8.75
-0.33927512 0.48466393 -0.592278 11.01225
-7.0156984 2.0916619 -0.59175789 14.037
-7.0073934 2.0921142 -0.58340001 14.036
-8.4020863 2.2286496 -0.58202565 14
-0.43888855 0.45860234 -0.57025909 11.5
-0.41212195 0.15253958 -0.56218147 9.0117502
-0.45416093 0.21107662 -0.55101514 10
3.8559744 0.33128113 -0.55220819 9.5
1.9624159 0.43016428 -0.55075693 11.15575
-0.45055163 0.46596915 -0.55735683 11.6137
-0.33493543 0.46025738 -0.55030668 12
3.8520579 0.53732431 -0.55576301 11
-0.33497918 0.57319176 -0.55323422 14
-0.44392067 0.15317053 -0.54175735 9
-0.60018849 0.24245571 -0.54679203 9.0305004
-0.33218062 0.29384342 -0.54146028 9.5
-0.45673329 0.42559606 -0.54618406 11
-8.5556545 1.4027522 -0.54678094 12
-4.3097754 0.15349993 -0.52890658 8.5305004
-0.34862971 0.24725068 -0.52257311 9.6159992
3.7832506 0.66603577 -0.5233407 12
-8.6147442 1.8791939 -0.52258682 13
3.7699614 0.31458789 -0.51501679 9.5
-7.7343435 0.66207695 -0.51748502 10
3.7584515 0.94711697 -0.51816511 13
-0.45836949 0.11309776 -0.50516415 9
-1.349709 0.096142277 -0.49188456 9
-0.43958944 0.25965548 -0.49057889 10
-0.46696693 0.36699206 -0.49851799 11
3.8288445 1.069862 -0.48255134 13.657749
-1.3457586 0.26882374 -0.47858614 12
-8.4084358 2.2285695 -0.47934318 14
-8.5712214 1.7556475 -0.46668351 13
-0.30354726 0.015955187 -0.4526484 7
3.7863092 0.10779042 -0.45979595 8
3.8575106 0.4675208 -0.4548676 10.5
3.7646446 0.52066123 -0.45751762 11
3.7800183 1.0167165 -0.45553446 13.656001
3.8495727 1.0515043 -0.45504928 13.75
-0.38883388 0.076177016 -0.44320524 8
3.8591311 0.20992231 -0.44150734 8.6000004
3.792592 0.70974022 -0.44821858 12.156001
3.8646162 0.85623741 -0.44409704 12.333333
-6.8058319 2.0927238 -0.44788432 14.035
-0.38983488 0.16024047 -0.43288183 9
-8.5477266 1.05823 -0.43321598 11
-4.4295177 0.033449911 -0.42166638 8.0325003
-0.39338839 0.48975062 -0.42932189 11.8
-0.3912946 0.54935551 -0.42546451 12.517
3.7834463 0.95386559 -0.42961121 13.8205
3.8683348 1.0365961 -0.4240191 13.822001
0.96448755 0.12515159 -0.41024587 10.1465
-1.3743466 0.19538665 -0.41577524 10.5
-1.3722489 0.31989235 -0.41027376 13
-0.39423573 0.45682991 -0.41076043 12
-0.39405 0.5679279 -0.41086611 14
-9.523036 1.8326794 -0.41316822 13
-6.5990834 2.1143043 -0.41786528 14.034
-0.32400966 0.017684639 -0.40458632 7
3.8863721 0.13165964 -0.40604377 8
-0.4310199 0.20240036 -0.40157509 9.178875
-0.39257371 0.34672058 -0.40857014 10
-7.1619759 2.1235342 -0.40467989 14.03775
-7.3448548 2.1446288 -0.40059015 14
-0.40453517 0.26246521 -0.38631868 9.6000004
-0.4085567 0.56802303 -0.38183585 14.031499
-0.48606527 0.64398062 -0.38414526 12
-0.41928375 0.6763624 -0.38025606 14
3.7605593 1.0026678 -0.38733554 13.5
-1.3958217 0.14640279 -0.37484711 9.5
3.7729399 0.21193716 -0.37334156 8.75
1.7775717 0.2923665 -0.37857762 8.8225002
-1.3880448 0.32084721 -0.37025306 13
3.7703545 0.45059115 -0.37256956 10.5
-0.43617606 0.47440839 -0.37499595 11
3.876971 0.71517181 -0.37660933 11.821834
-0.52207065 0.39653924 -0.36409926 11
3.8662548 0.94214761 -0.36813951 13
-8.5931196 1.7450075 -0.36878631 13
3.7759359 0.26931906 -0.35631537 9.3223333
-0.47468328 0.41038942 -0.35547376 11
3.7758636 0.79904091 -0.35914969 12.333333
-0.4749794 0.069230765 -0.34664655 8
-1.1467527 0.17256218 -0.34946826 8.0360003
-0.42310476 0.33787599 -0.34365723 10.119195
3.8703139 0.35592532 -0.34205461 9.8218336
-0.43027103 0.54402131 -0.34695244 12.5
-0.51474249 0.55547738 -0.34065557 11.388124
3.8795977 1.0375779 -0.34968984 14.151125
-0.50666165 0.30018193 -0.33647418 10
-0.53402299 0.052707531 -0.32524419 8
-0.43590057 0.3305465 -0.32009363 10.5
-0.43978536 0.16299823 -0.31521034 9
-0.45540738 0.18333797 -0.31246519 9
-0.43965435 0.5673908 -0.31027207 14
3.7895522 0.69931191 -0.31363559 11.953199
-0.4354111 0.16348252 -0.30354214 9
-0.43751121 0.45622331 -0.30986455 12
3.8491437 1.0681061 -0.30049181 14
-8.666007 1.8319829 -0.30844951 13
-0.37668073 0.02162116 -0.29525137 7
-0.4338454 0.31912908 -0.29936895 9.5
-0.59658086 0.4782238 -0.29328513 11.891438
-0.8444171 0.51557881 -0.29569626 12.0185
-0.50601923 0.56553751 -0.29531288 11.914999
-0.80945587 0.58293724 -0.29332399 11.348834
-0.47439945 0.18355907 -0.28435349 9
-0.44386065 0.2641623 -0.28466082 9.5700569
1.9979219 0.42945653 -0.28850058 11.150749
-0.58554441 0.5314973 -0.28351903 11.650818
-0.87720543 0.59662068 -0.28672051 12.01675
-8.5375051 1.4047407 -0.28873551 12
-1.4518061 0.073639065 -0.2712796 8.5
-0.57270348 0.44026443 -0.27275109 11.5
-0.48597133 0.51851708 -0.27208638 11.5
-0.76822495 0.52520382 -0.2716496 11.350499
3.8640451 0.5313822 -0.27244282 11
3.855113 0.79679596 -0.27621388 12
3.7837222 1.0638493 -0.27242684 14
-8.6683645 1.7922603 -0.27601361 13.03825
-6.8683119 2.1173792 -0.27189279 14.035749
2.2013962 0.095593706 -0.26224113 8.1680002
-1.447262 0.15771945 -0.26974699 10
-1.4444625 0.16417131 -0.26178181 10.206582
-0.5906238 0.46203041 -0.26409531 11
-0.60474312 0.58204466 -0.26156282 13
3.8726268 0.79582262 -0.2603991 12.1545
-0.49354255 0.14844158 -0.25677276 8.5
-0.5404821 0.15534312 -0.25464821 9
-0.98343945 0.46217555 -0.25169483 11
-8.5973005 2.2342134 -0.25837874 14
-0.57001376 0.15898088 -0.24588537 9.1073189
3.8470273 0.39888442 -0.24650598 10
-0.47954082 0.56928068 -0.23126981 14
-0.52760816 0.58419853 -0.23123336 13.01975
-0.65337825 0.60050046 -0.23365211 13.020833
-7.7167635 0.66941828 -0.23227656 10
-7.1082392 2.1102467 -0.23779821 14.037251
3.8472443 0.26846147 -0.22801495 9
-0.47358501 0.29420847 -0.22810173 10
-0.98298693 0.30683199 -0.22850773 9.5
-0.47846901 0.36309192 -0.22637463 10
2.2465553 0.36115173 -0.22423658 9
2.2386944 0.3720127 -0.22322741 9.5
-0.4737165 0.45695585 -0.2293407 12
-0.68313372 0.58652472 -0.2242732 13
3.7599883 0.91667724 -0.22489858 13
-0.86168289 0.30850017 -0.2180829 10.016167
-0.47623026 0.31991404 -0.21977791 9.5
3.8656151 0.33446965 -0.21828151 9.6545
2.2339199 0.39321095 -0.21817479 10.346451
3.8714352 1.0141139 -0.2145412 13.820832
-0.58510715 0.201432 -0.20950437 9.1258888
-0.92529714 0.28098652 -0.2056005 10.018666
-0.95792061 0.2983858 -0.20487309 10.26775
-0.65677798 0.45659748 -0.20460868 11.666667
-8.4141808 2.2270801 -0.20626564 14
-0.98198199 0.24465567 -0.19162083 10.020201
-0.61707461 0.5212611 -0.19495893 11.0145
-8.5585127 1.4093114 -0.19746518 12
-0.97777104 0.30815274 -0.18808565 9.4660721
-0.98018014 0.42443669 -0.1831539 10.5
-0.70564669 0.51432973 -0.1821754 11.5
-8.6671209 1.8324118 -0.18450689 13
-8.5276718 1.0626024 -0.17810941 11
-1.9241544 0.16623777 -0.16567723 9.5664043
-0.98077846 0.21211363 -0.16143292 8.5
3.7990389 0.25045276 -0.16565776 9.1545
-0.45563531 0.30951613 -0.1606648 10.019601
-0.70962161 0.36026096 -0.16584516 10
-8.5631342 1.7579463 -0.16018784 13
-0.65273607 0.29980639 -0.15088654 10
2.2409549 0.1035398 -0.14131284 8.1657505
-0.55996656 0.24213457 -0.14322376 9.5142498
3.8413429 1.0322225 -0.14574361 13.655999
2.1254594 0.084520675 -0.13653445 8.1660004
-8.5897455 2.2317326 -0.1390388 14
-8.6069508 1.877616 -0.12709594 13
-4.3988476 0.16591062 -0.11043167 8.6339006
-9.5290251 1.8319032 -0.11186809 13
-0.51091027 0.16617513 -0.1019485 9.0159998
1.1616423 0.2206555 -0.10421555 12.1375
-8.5615883 1.818284 -0.10938668 13
-7.15938 2.1207888 -0.10432959 14.03875
1.2575676 0.25200334 -0.094475403 12.470417
-7.3429761 2.1435683 -0.093586534 14
-8.5901823 1.7459012 -0.083050102 13
3.9333091 1.0258591 -0.076643109 14.149
3.7843881 0.9955954 -0.066474676 13.820416
1.7801492 0.42935172 -0.044673443 11
-7.7161627 0.67514896 -0.049054146 10
3.7651358 0.70348132 -0.033595085 12
-8.5576277 1.8186072 -0.038526297 13
3.7586999 0.33676296 -0.026308417 10
1.7670436 0.38570324 -0.026639938 10.5
