# .PCD v0.7 - Point Cloud Data file format
VERSION 0.7
FIELDS x y z intensity
SIZE 4 4 4 4
TYPE F F F F
COUNT 1 1 1 1
WIDTH 1307
HEIGHT 1
VIEWPOINT 0 0 0 1 0 0 0
POINTS 1307
DATA ascii
3.4618411 1.4149675 0.4499484 10.894388
3.4692714 3.1177399 0.72126508 11
3.463177 3.1074979 0.89191508 12.6258
3.4654951 3.1220286 0.89506203 12.5
3.4714582 -1.7604884 0.25250214 8
3.4763291 1.255969 0.34637606 10.5
3.4704971 -1.8480977 0.40263015 10
3.4761701 10.365934 2.9647551 14.134
3.4866061 1.3308383 0.44555539 12.5
3.4804621 -2.2042308 0.54425579 12.056
3.4814665 -7.7597537 2.2601428 14.0555
3.4946134 -1.903843 0.30654171 9.6904545
3.4948256 1.336548 0.30598757 10
3.4990125 3.1185961 0.72428292 11
3.5095491 3.1212068 0.90004528 12.5
3.5152328 1.2526324 0.45406461 12.5
3.5199053 -8.4802103 2.3397872 14
3.5201738 1.7313504 0.089657374 8.1100006
3.5211494 -0.9653939 0.22708142 9.0625
3.520371 1.850309 0.34509012 8.1129999
3.5209703 -2.6519396 0.35597593 8.8640995
3.5382833 -1.8499174 0.40836209 10
3.5393763 1.3855985 0.61407697 10.608749
3.5447261 -1.9189432 0.24527968 9.3200417
3.5417678 3.0734813 1.2773998 14.120125
3.5583625 -1.8553685 0.22769566 8
3.5561318 -9.4295282 1.9507041 13
3.5652468 -2.701685 0.47726211 11.06525
3.5635002 -7.8172226 2.2425425 14.05675
3.5794537 -1.8707106 0.30842051 9.9159641
3.5786178 2.9590077 1.0274814 14.117
3.5846143 -9.5334654 1.9422817 13
3.5983119 -2.7719266 0.26056075 9.2317505
3.6025026 1.2511978 0.32497236 10.194571
3.6257122 0.58015615 0.29769588 9.1018333
3.6306379 -1.7497935 0.48455709 10.5
3.6323955 3.1616473 1.1041663 14.1245
3.6330488 -8.4284649 2.3340182 14
3.6303079 9.0408535 2.5094478 14.12825
3.6491125 0.42089084 0.16842735 9.0960007
3.6483095 -0.99842155 0.21758278 8.0695
3.6462071 -1.7635847 0.29972246 8.666667
3.6404083 -1.842513 0.33273545 9.4074173
3.6482594 1.3039048 0.36682495 10.1055
3.6582196 0.4137775 0.13059364 8.5942497
3.6576335 3.1306992 1.0997801 14
3.6733961 -9.439683 1.9806808 12
3.6730444 -7.8734102 2.277004 14.054
3.6778665 -8.1801291 2.3514593 14.05
3.681118 3.1211343 0.98103994 13
3.6983998 -1.9488891 0.2290827 9.2005625
3.6990364 -1.8153356 0.3921642 9.0705013
3.7069449 -1.8343234 0.093839757 7
3.7026398 -8.3840075 2.3273816 14
3.7120113 3.1165361 0.92395586 12.5
3.7234352 -1.8349254 0.19523075 8
3.7227495 0.43885332 0.24454059 9.8249445
3.7208159 1.3343784 0.34371287 10.410824
3.7203853 10.301985 2.9217155 14.13225
3.7329438 -1.8376011 0.22147074 8
3.7304473 0.48086143 0.29364064 9.0939999
3.7362289 3.1125388 0.98619896 13.1235
3.746649 -1.8339055 0.19640085 8
3.7419226 -5.1799245 0.37485483 9.0515003
3.7470803 -1.8342758 0.40119699 10
3.7597389 -1.8447112 0.30055061 9
3.7668037 1.2515504 0.27538013 9
3.7601914 -2.2408633 0.58324015 12.05625
3.7644904 -7.3753724 2.1570628 14.058
3.7751672 0.50224078 0.39142194 9.09725
3.7988183 1.2502973 0.32006681 9.727273
3.7944338 1.246334 0.49204546 12.5
3.7971437 8.4469929 2.6013823 14.125
3.8066723 -1.4353317 0.14665011 8.0651665
3.8152456 1.3887037 0.44064012 10.1015
3.8246105 -1.726117 0.36687919 9.3975277
3.822315 -8.5532017 2.394237 14.049
3.8398023 0.55064803 0.32744083 9.3497086
3.8375621 1.4499903 0.42193523 9.962575
3.8445649 -9.4586811 1.6155531 12
3.8429947 10.375985 2.9911618 14.133
3.8514426 -9.4692459 1.2601986 11
3.8519802 -9.4335642 1.9724605 13
3.8665273 0.39676633 0.18167804 9.0953007
3.8603218 -1.9125559 0.35227656 9.6954546
3.8696339 -9.5395555 1.9622344 13
3.8654487 8.2994156 2.433964 14.124
3.8690331 8.9870949 2.5152051 14.1275
3.872946 1.2464069 0.44561133 11.5
3.8771131 3.130826 1.1339967 14.1225
3.8735628 -9.4249926 1.2566496 11
3.8746548 -9.4379892 1.6145387 12
3.8961649 -8.3501854 2.3341441 14.05
3.8994076 10.337287 3.0685186 14.131
3.9066541 1.2504646 0.30621454 9
3.9042835 1.3936869 0.5812906 9.906599
3.9184973 -1.8633442 0.22856016 9.1314707
3.9179289 -1.4687899 0.27214462 8.5672503
3.9137375 -9.4470644 1.9329665 13.0495
3.9333446 -5.0444164 0.44555244 9.0535002
3.9485583 0.41694394 0.077927195 8.0939999
3.9443734 -1.8487769 0.17889878 7
3.9536617 -1.8447325 0.24418935 8
3.9651413 0.34718525 0.28718451 9.8809719
3.9645791 -9.4460526 2.000186 12
3.9756734 -1.5984893 0.11049765 8.0749998
3.9848258 -1.5995995 0.23670952 8.491643
3.9826217 0.43545598 0.24763037 9.4004498
3.9847863 -1.7597802 0.28501055 8.8759995
3.9894311 -1.8249487 0.31092361 9
3.9830418 -1.8629874 0.36635062 9.986577
3.9961383 -1.6206803 0.080788955 8.0787506
3.9962804 1.3009883 0.34560603 10.1038
3.997 2.9859741 1.0248467 13.543286
3.9993513 3.0781987 1.3348523 13.950667
4.0063162 -1.4752717 0.17843357 8.0780001
4.0046716 -1.8677008 0.21048392 8.9660549
4.0083265 1.249439 0.34057036 9.666667
4.0001035 -1.5610226 0.35014957 8.6744003
4.005383 1.250264 0.37882569 10.49203
4.0079708 -1.8527292 0.44853699 10
4.0134001 -1.5741403 0.18196701 8.3994999
4.0123596 -1.8035277 0.42385539 9.3582859
4.013968 1.3237967 0.46470085 11.5
4.0126233 1.3301706 0.4997637 12
4.0203118 1.3332635 0.29849705 9.6000004
4.0368204 0.49354148 0.40921968 9.0965004
4.0363407 -1.853284 0.45101959 10
4.0354137 1.2417313 0.50058448 12
4.0320029 -8.0784607 2.3583443 14.05125
4.0442481 1.331282 0.19975764 8.5
4.043622 0.49000806 0.2539345 8.59375
4.050633 1.3372544 0.30149981 10
4.06428 0.55185193 0.30854049 9.0985003
4.0707927 1.3305581 0.33459505 9.9949713
4.0779781 1.2452533 0.44556642 11
4.0871954 1.244965 0.23155655 8.5
4.0832505 -7.7426457 2.28478 14.0555
4.0951762 3.0232105 1.038754 14.122749
4.1099782 1.4568667 0.41815463 9.824357
4.1096802 -8.4675341 2.3945303 14.05
4.1201935 10.384221 3.0136414 14.13225
4.1424189 8.1499205 2.4275918 14.123
4.1536555 1.4574652 0.38551894 9.25
4.1505899 1.452583 0.57693172 11
4.1538219 -9.4360151 1.9957919 13
4.159534 -7.5211387 2.2385442 14.059
4.1628308 1.3890693 0.3413558 9.1005001
4.1657763 -1.9048749 0.48581722 10.812876
4.1617432 -1.702886 0.48680243 10.0675
4.1732612 1.4538013 0.31015164 8.5
4.1753507 1.3939917 0.55319011 9.6052494
4.1712055 1.4542214 0.58059561 11
4.1813002 1.4615743 0.42678839 10
4.1878209 -9.5425386 1.9855968 13
4.1990962 -1.9355545 0.35863042 10.0735
4.208807 -8.935914 2.23754 14.05475
4.2137966 1.2911086 0.28872663 9.7694998
4.2188139 -3.971936 0.44340572 9.0629997
4.2261157 -7.7206612 2.2943552 14.056
4.239284 1.2677275 0.32511303 9.7663336
4.2356224 8.2823248 2.6083019 14.1235
4.248662 -1.8789845 0.46773031 10.566
4.2412167 -9.455534 2.0205734 12
4.245491 -7.3907285 2.261642 14.058499
4.2517157 1.2403133 0.53769785 12
4.2531691 10.259034 3.0792398 14.13
4.2622766 1.2435108 0.34120759 9.5
4.2689285 1.2491156 0.42696464 10.542358
4.2633219 3.1254117 1.1996282 14.119667
4.2762265 1.2429905 0.50864404 11.5
4.2857523 1.2439592 0.24481046 8.5
4.2850718 1.249279 0.40987787 10
4.2987928 -1.657522 0.23907752 8.4947863
4.2955027 1.3298572 0.32611254 9.6105003
4.3291292 -8.0732355 2.3877065 14.05225
4.3327861 -9.456955 2.0273559 12
4.3353229 8.1864271 2.4588289 14.1225
4.3468585 3.0499909 1.1234527 12
4.345767 -8.3403988 2.3702617 14.0515
4.3562593 3.0618098 1.3487061 13.5
4.3510823 -9.3150206 2.3560963 14
4.3696594 3.0585136 1.0548148 12
4.3663578 3.063293 1.3514484 13.61525
4.3792973 2.9796803 1.1042124 13.61275
4.3908844 -8.7706642 2.2500091 14.057
4.4035692 3.0489292 1.0821357 12.115001
4.4046612 10.342063 2.9840806 14.1305
4.4180317 8.8310728 2.5271318 14.12575
4.430335 2.9083095 1.0847512 14.1225
4.4385796 -7.4170957 2.2497816 14.06
4.4326568 -9.4242325 2.3861601 14
4.4557772 -8.3116283 2.384428 14.05125
4.4610877 -9.4362783 2.0208573 13
4.4767265 -9.4379616 2.3932362 14
4.4941363 -9.5476341 2.009831 13
4.4952035 -7.6240673 2.3018017 14.057
4.5012994 3.0136466 1.1035287 14.11975
4.5022793 -7.2518606 2.2637661 14.0595
4.5009127 -8.3504124 2.38762 14.052
4.5109444 10.519407 3.0814071 14.13125
4.5253787 -7.9530768 2.3793533 14.053
4.5490603 9.9153061 3.0149863 14.129
4.5656986 3.0459809 0.63561773 9.5
4.5774107 3.0391579 0.85660142 11
4.5787706 -8.7208834 2.2220094 14.0585
4.5743403 -8.7701817 2.2688661 14.0575
4.5745883 -9.5456934 2.3925211 14
4.5812354 10.284585 2.9840214 14.13
4.6079664 -7.1228528 2.204874 14.061
4.6057773 -9.5263891 2.3914645 14
4.6143799 -6.8580542 2.1459739 14.0615
4.6155162 -7.9955368 2.3179052 14.052
4.6276374 2.9481139 0.74814767 12.1115
4.626658 -7.0316234 2.2319784 14.06025
4.6319084 -9.4370165 2.0151088 13.0555
4.6466641 3.046726 0.5666427 9
4.648006 -7.8483119 2.367605 14.0535
4.6572809 3.0343926 0.79049158 10.5
4.6551471 -7.429225 2.2421389 14.0575
4.6659203 8.7951012 2.5439117 14.125
4.685492 3.0499754 1.021602 12
4.6854677 -6.2727385 1.4503047 13.0595
4.685945 -7.1555057 2.2184169 14.05825
4.6852355 -7.8731279 2.2842708 14.052999
4.6915164 3.0776439 1.2314405 13.816701
4.6969624 9.9412918 2.9033864 14.1295
4.6977911 9.1260834 3.0358131 14.127
4.7047944 3.0405562 1.0232474 12.113501
4.7116227 -5.8501582 1.4531898 13.0605
4.7254043 3.0359964 0.64575976 9.5
4.7344723 2.9473696 0.60230899 11
4.7314878 -5.8587456 1.383775 13.0605
4.7386041 -5.6783214 1.3982643 13.0565
4.7429647 2.9476771 0.76300901 12
4.7481694 -6.182467 1.4864855 13.05575
4.7516313 -6.6830697 2.1738176 14.06125
4.7683287 -4.963851 1.3709675 13
4.7630973 -4.9667263 1.5663062 14
4.7753272 -5.7415819 1.2040582 12.06325
4.7821255 -5.0189705 1.4864389 13.5
4.7829413 -5.5851474 1.6150436 13.55525
4.7869511 -5.7127447 1.7518269 14.056
4.7867641 -4.99929 1.7841961 13
4.7839355 -5.0550256 1.7954017 13
4.7868247 -9.5497427 2.034014 13
4.7939301 2.9337711 0.28979945 9
4.7923832 -4.9869499 0.71939927 9
4.7991495 -5.0052419 0.92966306 10
4.7908263 2.8783805 1.097535 13.786418
4.7997999 2.8981547 1.132664 13.360499
4.7932119 -5.04561 1.145327 11
4.7973218 -5.4384933 1.5796604 13.5565
4.7956791 -5.7379947 1.8544738 14.061
4.7910342 8.6635122 2.52527 14.1245
4.8019419 3.0475092 0.5755825 9.1129999
4.8095288 -4.9556713 0.71877038 9
4.8078651 2.9404225 0.7708807 12
4.8008895 -4.9281826 0.92316169 10
4.8048029 -5.1918411 1.5243375 13.557
4.8023376 -5.4237704 1.7832413 14.06175
4.805923 8.9300776 2.9938149 14.1265
4.8148246 3.0396605 1.1170119 12
4.8145981 -5.5454984 1.3399618 13.0615
4.812479 -5.0842371 1.3683183 12
4.8124762 2.9103251 1.3689591 13.347647
4.8197889 -5.7502379 1.4108386 13.0645
4.8167291 -4.9697328 1.56687 12
4.8186674 -5.4723511 1.8708882 14.06175
4.8183851 -5.446537 1.8743823 14.06525
4.8103194 -5.7356567 1.9325968 14.0645
4.8200345 2.9389377 0.51477885 10.4
4.8225932 -4.961791 1.1386114 11
4.8297963 2.7957401 1.1747632 13.6145
4.8264151 2.7234743 1.2255126 14
4.8213348 -5.4524803 1.3665203 13.06525
4.8275595 -5.401896 1.4173169 13.06425
4.8223147 -5.7034025 1.4603064 13.0635
4.8259873 -5.0630322 1.7056228 14.06275
4.8271604 -5.0662923 1.7994959 14
4.8218937 -5.1566162 1.8058084 14.0625
4.8264246 -5.7181497 1.9816588 14.0635
4.8298988 -7.469409 2.2966821 14.054501
4.837656 2.7235246 0.96616668 12
4.8367624 2.7287145 1.0973189 13
4.8356256 -5.4708853 1.1182834 12.06525
4.8394761 -5.1223755 1.1394178 12.065
4.8370571 -5.4101667 1.1719019 12.06425
4.832305 -5.0742002 1.3127602 13
4.8397727 -4.9421954 1.3541505 13
4.8336949 -5.1191239 1.3779523 13.065
4.837729 -4.96591 1.4788344 13.5
4.8359408 -4.9403086 1.7798967 13
4.8353076 -4.9445024 1.8286837 14
4.8348584 -5.1266813 1.8641626 14.065
4.8347754 -5.4188938 1.9223481 14.06425
4.8471613 2.9204853 0.29214853 9.1105003
4.8461261 -5.0907993 1.0743223 12
4.8419318 2.9038584 1.0894907 13.717051
4.8482642 -4.9485879 1.1210356 12
4.8493142 3.0315793 1.4397954 13.5
4.8493047 -5.2570066 1.695632 13.7245
4.8453832 -5.0337048 1.7963431 14
4.8595219 -4.9144769 0.92699707 10
4.8560443 -5.0487404 1.0704936 12
4.8529716 3.1379676 1.2481804 13.616
4.8547454 2.9479213 1.2764195 14.1105
4.853725 -5.0451002 1.3114003 13
4.8517175 -4.9943147 1.4901427 13.5
4.8552146 -9.4367771 2.0551958 13
4.8665891 -4.916935 1.1196169 12
4.8615375 -4.9223123 1.829205 14
4.8635416 -6.7236066 2.152926 14.0625
4.8795681 2.6253922 1.1447409 12
4.8743839 2.6398556 1.1458936 12
4.8775067 3.0355997 1.2045975 12
4.8707738 -4.925633 1.3560944 13
4.871357 -5.4399419 1.3737341 13.0575
4.8757272 2.6270936 1.3713759 13.5
4.8706994 2.6464043 1.4498997 14
4.8793583 3.0380282 1.4470022 13.5
4.8711157 9.7572756 3.0072687 14.128
4.8912058 2.6024287 0.96214032 13.11525
4.8957167 2.6220562 1.0714115 13.108749
4.8937845 2.8358152 1.2657801 14
4.8922515 -7.9413719 2.3335838 14.053
4.9033098 2.8338938 0.77319992 12
4.9095936 2.570034 0.97262603 13.1175
4.9093904 2.6717043 0.99196053 13.118
4.9048104 2.5525742 1.0894662 14.1175
4.9097424 2.8759038 1.1087964 13
4.9012456 2.8826215 1.2751856 14
4.9013977 2.6260014 1.3009593 13.1105
4.9154668 2.8804781 0.29456154 9
4.9156232 2.8349311 0.37332717 9.5
4.9148045 2.8778131 0.50909889 10.333333
4.911571 2.8374023 0.61279565 11
4.9143238 2.8828745 0.7794342 12
4.9110241 -9.441186 2.0383625 13.05625
4.9230957 2.5948377 1.0512171 13.781667
4.92735 2.946944 1.2916496 14
4.926743 -5.107264 1.3300231 13.0665
4.924931 -4.9358616 1.5764608 12
4.9222598 -5.1001086 1.8234644 14.0665
4.9359808 -5.118763 1.0873227 12.0665
4.9328995 -7.0353866 2.2235651 14.05925
4.9411798 2.9507074 0.95684153 13
4.9561067 -7.7840004 2.2913909 14.054
4.9653544 -4.9070034 1.1297868 12.066
4.9693341 -4.8479757 1.5899959 13.559249
4.9731426 2.7147171 1.2577562 14
4.9713831 -5.0992923 1.528358 13.556999
4.9713955 8.9040737 3.0054097 14.126
4.9820566 2.7124712 1.0574164 12.5
4.9887633 -4.964159 1.500297 13.5
4.9849906 -4.9386296 1.8042409 13
4.983335 -9.5530148 2.0511742 13
4.9833488 -6.5296202 2.1766818 14.06225
4.9980273 -4.9937649 1.5428376 13.666667
4.9918342 -4.9662671 1.6006175 14
5.0006189 -7.1680808 2.2228553 14.059001
5.0155401 -4.9335423 1.2638966 11.5
5.024085 -9.1389761 2.3003497 14.053
5.0325265 -4.9859633 1.4166312 13
5.043643 -4.925508 1.1578808 11
5.0441279 2.7113161 1.2053846 13.612834
5.0439701 -7.436728 2.2217381 14.054
5.0557261 2.7155669 1.0045923 12.112834
5.0568089 -4.9264259 1.3819511 13.06625
5.0589724 9.9460115 2.98013 14.1295
5.0631571 -7.6540971 2.2712421 14.0545
5.0733719 2.5079498 1.0925106 13.107501
5.075253 -9.3260174 2.0201778 13.059
5.0773587 -9.4377623 2.075634 13
5.0849991 -4.9694061 1.415302 13
5.0914621 -4.9968853 1.622642 14
5.0921869 -4.9470119 1.8240535 13
5.0911059 -7.3721642 2.3073704 14.0555
5.1095972 2.7107673 1.013399 12
5.101336 -4.9435601 1.3841543 12
5.1025338 -4.9803014 1.7346362 14.064
5.1091328 -4.9036756 1.8720975 14.066501
5.1025271 -6.7695408 2.1415846 14.06
5.1023941 -6.5686398 2.1560297 14.0635
5.1082578 -7.1903262 2.1670167 14.0545
5.1186457 2.7126 1.2912934 14
5.1126261 -9.4265604 2.0770924 13
5.1226478 -5.0050507 1.0659732 12.064
5.1238899 2.7120111 1.1537294 13
5.1254172 -9.0286512 1.9740082 13.0595
5.1280766 -9.267683 2.0288179 13.057
5.124526 -9.115283 2.0271542 13.0585
5.1285529 -6.8191881 2.2032712 14.06025
5.139708 -6.4125252 2.1176231 14.061
5.1385245 -7.0265923 2.1236348 14.0555
5.1457586 -6.3988371 2.175324 14.063
5.1547027 -8.7110081 1.9230815 13.06
5.1586275 -8.7848415 1.9766831 13.059
5.1696048 -1.1448684 0.62068379 11
5.1641836 -1.0272737 0.70044672 11
5.1683621 -1.0520461 0.91431969 12.879301
5.1629877 -1.0351225 1.0058455 13.666667
5.1757746 -0.91924995 0.409361 9
5.1787658 -1.2219958 1.0434294 13
5.1775184 2.4408994 1.1246009 14.115083
5.171032 -4.9785519 1.2920983 13.06425
5.1782103 -7.5083008 1.7178671 13.059
5.1701665 -7.8250847 1.7731223 13.0585
5.1769767 -7.7047739 1.7862098 13.059
5.1823792 -1.0702894 0.30848813 8.0790005
5.1803169 -1.1321293 0.36025244 8.5
5.1853218 -1.1675258 0.37574208 9
5.1975589 -1.2545928 0.2186078 7
5.1990204 -1.165059 0.44797447 10
5.1979766 -1.1468546 0.72563219 10
5.1971202 -1.2320706 0.86751151 11
5.1922817 -1.2596835 1.2765609 13
5.1908908 -1.172756 1.2717327 13.333333
5.1966577 2.5194998 1.3797015 13.323035
5.1938787 -4.8395791 1.5327752 13.725334
5.2025785 -1.2242744 0.34065256 7
5.2005229 -1.0641905 0.34253576 7
5.2087116 -1.1166676 0.4058153 7.75
5.2068629 -0.96392483 0.40443024 8.875
5.2054477 -0.95514315 0.77780306 11.5
5.205122 -0.95330268 1.0005932 13.571428
5.200983 -1.1232842 1.0673202 12
5.2068582 -4.7154031 1.3826054 13.059
5.2092357 -1.071519 1.3860062 14
5.2041559 -4.4315553 1.502287 14.05975
5.2033548 -6.470861 1.5664408 13.064
5.2047591 -7.0988598 1.6645626 13.06275
5.2042851 -7.4141345 1.7440504 13.0595
5.2096357 -7.2773952 1.7434168 13.0615
5.2010584 -8.7594147 1.954311 13.05775
5.2159882 -1.062193 0.46810043 9.0828333
5.2163258 -1.0179889 0.60830355 10.4
5.2197905 -0.98024321 0.73116434 11.0835
5.2115808 -1.0616239 0.87450629 12
5.2133608 -1.2929775 0.88209283 12
5.2183547 -1.0726274 1.0879868 13
5.2109146 2.5071487 1.0818278 13.668389
5.2141824 -4.9549341 1.0991659 12
5.2116752 -1.1469191 1.1588099 13
5.2194557 -4.1810493 1.2764658 13.0605
5.2145877 -4.43818 1.3273729 13.05975
5.2175479 -4.5253282 1.3449085 13.0605
5.2157941 -5.0599265 1.3618866 13.0675
5.2146659 -3.942246 1.3908967 14.06125
5.2100778 -4.1761642 1.4437406 14.0605
5.211894 -4.6483121 1.4961022 13.726833
5.2142949 -5.0562849 1.8683715 14.0675
5.2210503 -1.3714883 0.27671248 9
5.2278171 -3.574348 1.2506412 13.662601
5.2287664 2.4853659 1.2894959 14.106833
5.2239056 -4.2725391 1.2964621 13.06125
5.2267041 -3.9235196 1.4001416 14.0625
5.2226648 -3.9852307 1.466202 12
5.2216887 -4.0439105 1.4752443 12
5.220017 -4.3098249 1.4849896 14.06125
5.223146 -4.0691376 1.5788621 12.5
5.222774 -7.0186486 1.7053045 13.062
5.2254062 -4.8906898 1.8207474 14.06475
5.2353163 -1.2835146 0.1009651 8
5.2342634 -1.0361422 0.29963455 8
5.2333913 -4.6264391 0.60693616 10.0655
5.2316313 -1.3248224 0.61471814 10.4
5.2380576 -3.9422066 0.6347152 10
5.2342572 -0.88580573 0.71997893 10.75
5.2366972 -1.1657273 0.7540729 12.678499
5.2365222 -1.0406991 0.90432996 14.08
5.2310481 -3.1378527 0.99815726 11
5.234076 -0.052270886 1.0147901 14
5.2372632 -3.8878925 1.1388031 13.068
5.2379932 1.7047114 1.1485763 14
5.2379236 -4.7158947 1.1511718 12.56525
5.2341781 -3.9131746 1.171647 13.0625
5.2382808 1.8630613 1.1727579 14.1065
5.2317328 -3.7377882 1.1914617 13.062
5.2337809 2.1811852 1.2228177 14.108666
5.2315159 -4.7896357 1.2575663 12.565
5.2322321 -3.2940516 1.2504839 14.06375
5.2374325 -0.83621681 1.2688507 14
5.2364993 -0.70308501 1.2633734 14
5.2351789 2.5704923 1.29234 14
5.2364602 -4.907783 1.3439732 13
5.2350492 -4.9577661 1.3505647 13
5.2300334 -1.3605466 1.4097306 14
5.2363639 -3.4977748 1.4160606 13.819625
5.2377458 -3.9022977 1.459564 13.667999
5.2341185 -4.2412119 1.5007064 13.56675
5.2379441 -3.5846937 1.5475878 13.8691
5.2326431 -4.6282406 1.5569178 13.0655
5.2383599 -4.2747416 1.552586 13.316626
5.2384362 -3.7328918 1.6943074 14
5.2371521 -3.896806 1.7202984 14
5.2373729 -6.6144485 1.8813713 14.057
5.2487755 -1.1649928 0.15920615 8.333333
5.2486892 -1.1573292 0.38691413 9.2324228
5.24719 -2.2739089 0.57057947 10
5.2455816 -2.4042318 0.62705415 10.0745
5.2466717 -3.3441374 0.7328161 11.0735
5.2464271 -0.60561341 0.73199189 11
5.2453976 -2.5793846 0.76617646 11
5.2427278 2.3859348 1.0038707 13.1144
5.2402358 -3.920131 1.0635118 12
5.2425632 2.5806847 1.1115094 12.666667
5.24611 -3.3652301 1.1232493 13.0635
5.2482958 -2.7132406 1.1552757 14.06775
5.2454019 -3.1692414 1.1697248 13.565501
5.245563 -2.8781533 1.1661619 14.06575
5.2450285 -3.4924016 1.1991135 13.349858
5.2470932 2.5793228 1.203122 12
5.2412682 -1.3540322 1.2365646 13
5.2463131 -3.2952662 1.2445391 13.0705
5.2476397 2.5961652 1.2446049 13.7111
5.2408204 -0.9780072 1.2764127 14
5.2474718 -3.9294164 1.2844598 13
5.2498612 2.635004 1.3080633 14
5.247859 -3.1313434 1.339051 13.071
5.2445741 -2.7515256 1.3392396 14.073001
5.2427392 -3.1586618 1.3488214 12
5.248157 -1.1169891 1.348362 14
5.2479496 -1.9604882 1.3589861 14.077125
5.2451019 -3.484385 1.3862475 13.0695
5.2495203 -4.6427341 1.3911829 13.402167
5.2451911 -2.7574716 1.4584001 14.07275
5.2465997 -2.9440951 1.4913138 13
5.2458792 -3.0183058 1.5027453 13
5.2452116 -3.1344171 1.5145433 14.071
5.2417698 -3.1629367 1.5247205 13
5.2420278 -3.6516027 1.5739499 13.571
5.248045 -4.8448749 1.6355435 13.5605
5.2459354 -6.7854195 1.6727517 13.0625
5.2404499 -8.1757603 1.8888057 13.055
5.2503133 -0.91062689 0.31305066 8
5.2554379 -2.1741652 0.38807529 9
5.2501554 -0.48687071 0.41417894 9
5.258399 -0.35025012 0.41477871 9
5.2580328 0.49097708 0.42143279 9
5.2571926 0.55144262 0.42234874 9
5.256393 -1.1139019 0.4521409 10
5.2508311 -0.84726495 0.5195781 10
5.2559333 -0.92771268 0.52176827 10
5.2507343 -1.9912372 0.56322438 10
5.2547116 -2.5686491 0.5835039 10
5.2574692 -2.5421243 0.64022392 9
5.2567263 -1.5911025 0.66900295 10.666667
5.2564154 -0.56580418 0.6864627 12
5.2562313 -0.70880532 0.69249469 11
5.2528157 -1.1486644 0.71812165 11.5
5.2548847 -1.8827028 0.73635459 11
5.2583604 -0.27284431 0.73363942 12.687999
5.2561965 -2.1889589 0.74903566 11
5.2527246 -1.1850893 0.74838293 11.666667
5.2538996 -2.5435679 0.79519463 10
5.2570481 1.7082359 0.81712008 11
5.2544665 -3.6247973 0.82862115 11
5.2596436 -3.6024163 0.8276968 11
5.2589483 -3.1128094 0.82953584 10
5.257781 -3.9609601 0.85188395 11
5.2585363 -0.78618634 0.8760007 12
5.2572732 -3.166048 0.90019286 11.5
5.2529154 -3.1128249 0.94129103 12.06575
5.2574954 2.0246596 0.95119548 12
5.2559996 2.2291865 0.95135897 11.9089
5.2586393 2.1672719 0.96862888 12
5.2575827 -0.37397557 0.97641098 13.5
5.2591572 1.2254382 0.98129421 13
5.2518196 -3.4904718 0.99962962 12.063
5.2538872 -3.3946159 1.0186983 12.072
5.2544928 -3.3172421 1.0122088 12
5.2573271 2.490556 1.0106692 12.1105
5.2573657 2.6312137 1.0297599 12
5.2560534 -3.5758686 1.0345006 12
5.2538152 -0.83994329 1.04493 13
5.2592587 -0.89470941 1.0579585 14.081
5.2587709 -0.84111667 1.0704103 12.5
5.2553124 -4.0695949 1.0902133 11
5.2549763 -2.3983152 1.0990385 14.0695
5.2595558 -1.9024274 1.0964874 13
5.252161 -4.3142991 1.1017548 12.066501
5.2500472 -3.7852638 1.1250868 12.333333
5.2516756 -3.7446349 1.1209371 12.404
5.2549896 -1.7658031 1.1521155 14
5.2525454 2.5430996 1.1534929 13
5.2576804 -2.8215818 1.1694758 13
5.2576799 -1.8766211 1.1683434 14.07325
5.254787 -2.3101809 1.2342592 14.0705
5.2521749 -2.1765027 1.2579342 14.076
5.2551327 -2.4697666 1.2608076 14
5.2518921 -0.35557878 1.2605708 14
5.2581911 -2.5635099 1.276778 13
5.2518244 -2.667444 1.2823439 13.073201
5.255919 -2.6183374 1.2866445 14
5.2554679 -2.3733504 1.2889946 13.32475
5.2555785 -3.9712105 1.3030217 13.4045
5.2575216 -3.008971 1.3290367 13
5.2539468 -2.9455094 1.3225257 12
5.2524757 -1.5769829 1.3220959 14.0795
5.2516308 -3.0184634 1.3317341 12
5.2570825 -4.2954221 1.3445293 13.403333
5.2582636 -3.1278105 1.3433264 13
5.2587681 -2.9362125 1.3453294 14.06725
5.2576623 -0.79713589 1.3865651 14
5.2557273 -3.2244563 1.413919 13
5.256979 -2.3371091 1.4108673 13.5
5.257791 -2.5624104 1.4377244 13
5.2514644 -1.6985946 1.441304 14
5.2520356 -3.5782027 1.4584421 13
5.259232 -2.5584505 1.4551691 13.6
5.2517805 -3.6176844 1.4636382 13
5.2574697 -3.5614619 1.4665012 14.0645
5.2528958 -1.9884179 1.46848 14
5.2596788 -3.372999 1.4856269 13.322124
5.2569551 -3.7678308 1.5086273 14.06375
5.2588329 -4.5758524 1.5819807 13.56125
5.2573705 -4.1492434 1.5889053 14.0625
5.2590504 -4.9895101 1.6104898 14
5.2533364 -6.6258368 1.6220108 13.057
5.2596827 -3.7687759 1.6511067 14
5.2544031 -3.9993646 1.6712945 13
5.2528319 -3.58164 1.6734861 14
5.2640228 -0.27973634 0.27279633 9
5.263464 -0.19293334 0.30797797 9
5.2688646 0.26636907 0.31056723 9
5.2686834 -0.68356538 0.38055426 9
5.2603641 0.22166856 0.41812354 9
5.2699304 -1.5021505 0.4612124 10
5.2670674 -2.4132216 0.48837927 10
5.2632079 -2.390728 0.48283845 8
5.2684784 -2.2877989 0.48406598 10
5.2677836 -0.23028958 0.48054516 9
5.2607851 -3.9314835 0.52837521 9.5
5.2667789 -2.8744292 0.52548897 10.06575
5.2648931 -3.077601 0.53868061 10.06475
5.2659111 1.6674016 0.53611922 9
5.2682467 1.6989909 0.53759158 9
5.2678256 -1.6512192 0.54422337 10
5.2681589 -2.0289838 0.55943036 10
5.2665005 -2.3464298 0.57377845 10
5.2619023 1.7327223 0.62646288 10.5
5.2692733 -1.3340971 0.63606429 10.5
5.2696714 -1.6077594 0.65818232 11
5.2628517 -0.74995673 0.65468889 10.666667
5.2682939 -2.0528932 0.69945759 9.5
5.2669997 -0.074723192 0.70370334 11
5.2689509 -3.0887938 0.71850955 11
5.2605376 -2.363806 0.71065634 9.5
5.2688136 -0.36754745 0.71650058 11
5.2601862 -0.54795718 0.72575182 10.5
5.2695465 -0.23765731 0.72656876 10.5
5.2679033 -2.7683256 0.74478018 11.573001
5.2652035 -0.010690635 0.77176762 13.090833
5.2660031 -2.6934028 0.78067857 11.512333
5.2648921 -3.4002976 0.81530237 11.072
5.2601132 -1.9070503 0.81932175 11.4774
5.2608328 -3.5769596 0.82615316 11
5.2613859 -2.970062 0.82087857 10
5.260654 -3.9349835 0.85036409 11
5.2607756 -2.7230794 0.86380261 11.4729
5.2665515 -0.26465139 0.86664093 14
5.2615256 -2.2003689 0.87417799 11.742333
5.2657185 -0.18759674 0.87190062 12
5.2655582 -3.1697445 0.88436496 11.731083
5.2680421 -2.8940918 0.88342339 11.5
5.2670789 -0.22906256 0.88845199 12.754001
5.269361 1.3273169 0.8808825 12
5.2688527 0.29773697 0.89714271 12.806929
5.2662363 -3.0210726 0.90025705 11.5715
5.2650089 1.3679746 0.94020087 12.5
5.267261 0.86557066 0.95331794 13
5.2645707 -0.07970985 0.97261363 13.5
5.2690749 1.7253611 0.97953969 12.5
5.2637749 -0.63096869 0.98869628 13.5
5.2626715 1.2037166 0.98014206 13
5.2651014 -3.9420519 0.99974591 12.07125
5.2693195 -3.0594931 0.99666786 11
5.2682157 1.6273192 1.0041299 12.8
5.261529 -4.2146068 1.026258 12.07025
5.2662597 -0.605115 1.0448033 12.333333
5.2666616 -0.58128369 1.04702 13.5
5.2685528 -0.87442464 1.0639857 13.5
5.262764 -1.5693688 1.0769129 13
5.2606959 2.118041 1.0793673 14
5.2639189 -4.0800958 1.0923054 11
5.2677479 -1.2481749 1.0927792 14.078
5.2690701 -3.4026124 1.1091774 12
5.268712 -2.5628974 1.1163427 11
5.2693286 -0.2821295 1.1110677 14
5.2648587 -0.055488404 1.1313003 13
5.266736 -1.0103856 1.1467346 13
5.2614031 -2.0146666 1.1595652 13.577
5.2621431 -2.7638967 1.1715199 13.073001
5.262125 -1.9065049 1.1882282 13
5.2638741 -1.5015668 1.1825792 13
5.2617579 -3.7991686 1.2075372 13
5.2683177 -0.63761324 1.2021691 13.58625
5.2681561 -0.78051609 1.2170562 13
5.2644248 1.3578085 1.212308 13
5.2682447 -1.6941427 1.2646327 13
5.262857 0.052293774 1.2660978 14
5.2665086 -2.1894665 1.3047577 13
5.2642217 0.82650423 1.3045106 14.0975
5.2695327 1.5561314 1.3063174 13.5
5.2639742 -3.3814099 1.3141675 13.350928
5.2651052 0.90968335 1.3111067 14
5.2665114 -3.7702842 1.3362753 13.06375
5.2618837 -2.4014177 1.3375058 12.5
5.2631087 -3.3840044 1.349709 13.5
5.2631927 -3.4090149 1.3543233 13.5
5.2697992 -2.3110361 1.355818 13.5
5.2678313 -2.0755513 1.3769686 13
5.2664022 -4.1506023 1.4048035 13.0625
5.2647972 -1.3569181 1.4184253 14
5.2693048 -3.2329667 1.4652636 13.574
5.2676406 2.1793184 1.4651891 14
5.2621479 -3.1512039 1.4745865 13.333333
5.2674007 -2.9030588 1.4785233 13.5
5.2639804 2.2483721 1.4756094 14.107
5.2689199 -3.356564 1.4820381 13.5735
5.2615967 -3.8978167 1.54687 13.568
5.2649879 -3.7457395 1.648569 14
5.2788043 -1.4237965 0.23643552 8.75
5.2745056 0.30447218 0.27211371 9
5.2720733 -1.3171602 0.30030438 8
5.273025 -0.38955137 0.30914283 9
5.274581 0.077595778 0.33258188 9.25
5.2797313 0.24174285 0.35733452 9.5
5.2779908 -0.043783575 0.36797112 8.5
5.2728734 -1.9709489 0.38679123 9
5.2709546 -1.5857935 0.38323319 9
5.2751713 -1.0074685 0.38829291 9.3303747
5.2775083 1.7074895 0.41711339 9
5.27317 -1.6509824 0.42847234 9
5.2776427 -2.0243206 0.43645889 9
5.2758002 -0.80775958 0.44924235 10
5.2714853 1.9685947 0.46368438 9
5.2734733 -2.0125499 0.47537059 10
5.2789316 -1.7962171 0.47841242 8
5.2753339 -2.3574734 0.48321718 8
5.2735829 -1.6209718 0.50467956 9.666667
5.2727323 0.86276603 0.53308463 10
5.2706733 -2.5015712 0.58228701 10.06925
5.2720213 -2.5625281 0.62384444 11.0675
5.2740955 -0.4852922 0.62692112 10.5
5.2780919 -0.18583612 0.62772989 10.5
5.2790403 -2.4071527 0.68046099 11
5.2751317 -2.0459473 0.68499738 11
5.2763166 -1.4685199 0.68289071 9.5
5.2719669 -2.6977684 0.69539416 11
5.2756262 -2.6004591 0.69037819 11
5.2779403 -2.5010073 0.69005281 10.8
5.2722511 -1.7670671 0.69063175 9.5
5.2717013 -2.8231361 0.7026518 11.07575
5.2776489 -2.3604116 0.70669097 11
5.2790828 -1.2875319 0.7002579 11
5.2741728 0.07235647 0.70169908 12.25
5.2732024 0.22189938 0.70870191 11
5.2700825 -3.0538394 0.71643591 11
5.2705169 -3.1152308 0.72043419 11.0745
5.2755027 -2.5932305 0.72341943 11
5.2710676 2.0641985 0.7313562 10.666667
5.2738166 -1.4894011 0.74987501 11.6
5.2788548 1.8286526 0.76789349 11
5.2766285 1.8556359 0.76906496 11
5.2773557 -3.8679566 0.77277559 11.0715
5.2770548 -0.42040056 0.77704978 13
5.2781801 -0.95185733 0.79272741 11.5
5.2744241 0.2921907 0.82558161 13.5
5.274652 0.34761685 0.82765019 13.5
5.2755537 -0.58174664 0.83423483 12
5.2750459 -0.3868967 0.83889937 14
5.2723227 -1.5966699 0.84507459 11.666667
5.2797379 0.6581986 0.84580684 13.5
5.2738314 0.015568918 0.86712235 14
5.2755451 0.89958799 0.86370426 13.5
5.2745719 0.9479745 0.86771238 13.5
5.2768416 -2.794857 0.87553239 11.899666
5.2740965 -0.49547142 0.87437588 12
5.2755184 0.1032704 0.87518036 12
5.2722812 0.41386449 0.87988633 12
5.2780666 1.0598928 0.87211305 12.190772
5.2729259 -1.0211939 0.88345277 12
5.2711554 0.7113232 0.88745564 12
5.279614 1.2136338 0.88714457 13.5032
5.278295 -1.3564736 0.89482939 12
5.2789464 -1.3219106 0.89372593 12.082
5.274333 -0.28235912 0.8952418 12.5
5.2784843 0.014285836 0.8907702 12.5
5.2798967 -1.6017616 0.90227199 13
5.2765212 -0.93163657 0.95560896 13
5.2713299 0.17286038 0.95923126 13.333333
5.2725682 0.63272417 0.95721203 11.596
5.2751746 2.0989988 0.9553864 13
5.2790685 -2.3899238 0.97830319 12
5.2716951 -0.77884626 0.9772954 13
5.2741265 -0.49813098 0.97153592 13
5.2791343 1.8407116 0.97591585 12.4395
5.2757926 -4.2102232 0.98485911 12.067
5.2732983 -3.7815547 0.98544812 12
5.2746415 0.80772489 0.98765844 13.333333
5.2784705 -2.4140048 0.99999619 11
5.2786798 -1.9214826 0.99744153 14.072001
5.2771711 -2.6259885 1.0066651 12
5.2723627 0.42818105 1.0012048 13.666667
5.2724171 -1.0092016 1.0102307 12
5.277339 1.5808411 1.0238923 13
5.2759008 -1.6070043 1.0399833 13.2
5.2791486 2.4371722 1.0336026 12.107999
5.2742777 -0.49714041 1.0420843 13
5.2797408 -0.1118126 1.0409502 13
5.2735524 0.41748872 1.0429862 13.5
5.2752461 0.50614786 1.0406753 14
5.2739868 -1.150165 1.0509784 13
5.2777033 0.52525038 1.0504782 13
5.2761784 0.61709267 1.0500236 13.5
5.2756095 -3.8966928 1.0636011 12.068
5.2760682 -2.5590825 1.0686951 12.5
5.2710075 -0.93745744 1.0652838 14
5.273632 2.2268324 1.0601313 13.7775
5.2704468 -3.7518806 1.0928062 12.5
5.276566 -4.9659777 1.107421 12
5.2780681 -3.388798 1.108745 12
5.2731853 0.11393644 1.1096698 14
5.2773576 0.88698834 1.1071825 12.5
5.2779832 -0.43277019 1.1267823 13
5.2742767 1.2243286 1.1239654 12.5
5.27525 -2.6304741 1.149592 13
5.275269 -0.61087662 1.1531943 13
5.2781582 -0.90353876 1.1634016 13
5.275064 -3.5551159 1.1818435 13.07275
5.2742414 -2.5560777 1.1993942 13.497787
5.2723122 0.2648342 1.2074578 13.5
5.2761149 -2.0768609 1.2261796 12
5.2765341 -1.792367 1.2736126 12.5
5.2700129 -2.0801942 1.3016043 12.5
5.277739 2.202985 1.3158411 13
5.2753935 -2.0096381 1.3277389 13.5
5.2772408 -1.5459706 1.323426 13
5.2727699 -0.80885386 1.3397144 14
5.2751765 -0.61023229 1.3334454 14
5.2789016 -1.8483263 1.3462511 13.666667
5.2714639 1.2435406 1.3439809 14
5.2711959 1.8543527 1.343765 13.5
5.2709146 1.4252274 1.3633765 14
5.2762761 -0.19042136 1.3782583 14
5.2748489 0.10674991 1.3785827 14
5.2738237 -1.5205197 1.3814908 14
5.2737188 -0.4928863 1.3813642 14
5.2767892 0.40681267 1.3855926 14
5.2721958 2.1324265 1.3819568 13.5
5.2714877 -2.6517792 1.392941 13.5
5.2776141 0.70668232 1.3968444 14
5.2799401 -1.0271109 1.4027103 14
5.2745495 2.3144205 1.4094075 13.5
5.2780638 1.3067975 1.4345577 14
5.2775006 2.599931 1.4553859 13.5
5.2702775 -4.9404469 1.604403 14
5.2776527 -3.2614126 1.6310183 14
5.2774315 -3.342046 1.6427425 14
5.2773199 -3.8905418 1.7279097 14.07025
5.2875457 -0.90775079 0.27562246 9
5.2871056 -0.59364456 0.27680662 9
5.2883754 0.48340234 0.27342305 9
5.2867465 0.013345908 0.32000914 8
5.2856102 0.90784258 0.32972816 8.0985003
5.2860122 -0.21963884 0.34021875 9
5.2818837 -0.84413493 0.41082373 8
5.2896357 -1.9521494 0.43523231 9
5.2862687 -0.60108525 0.43479779 8.333333
5.2808375 -0.61022621 0.44763577 10
5.2813101 -1.8120048 0.47009116 10
5.2849197 -1.7240801 0.4784092 8
5.2882757 -0.58025324 0.48468834 10.5
5.2825398 -2.4086294 0.4982402 10.0685
5.2808123 2.0247169 0.5065065 9.333333
5.2855659 -1.8781394 0.51928174 10.07225
5.2869349 -1.2946076 0.5347892 10
5.2852187 1.6605704 0.53712416 9
5.2828755 1.7090994 0.59007269 10
5.2808108 -0.26177251 0.62845695 11.5
5.2856879 0.11457841 0.63080549 10.5
5.2875395 0.61783046 0.6308347 10
5.2824159 -2.111809 0.66651052 11
5.2806268 -1.9533834 0.67934757 10.5
5.286253 -0.611561 0.70998573 11.5
5.2860689 -0.90830261 0.71569914 11.5
5.2803268 -1.5732976 0.73123223 11
5.2820292 -0.61543953 0.73940235 12.584374
5.2829733 0.062664762 0.74409759 10.5
5.2868733 0.36343756 0.74208736 10.5
5.2858829 1.6272998 0.74925846 11
5.2857065 1.6597241 0.74742639 10.5
5.2892489 0.54237884 0.75246066 10.5
5.284411 1.3643347 0.77480036 11.333333
5.2809334 1.9245806 0.77365631 11.10125
5.2806716 -0.48751593 0.78245533 13.372001
5.2833028 0.51673567 0.78080994 12.985332
5.2889729 1.786321 0.7801277 10.666667
5.2810802 0.86528194 0.79569185 11.5
5.2890639 -2.3130589 0.8139289 11.870199
5.2821951 0.067453779 0.8116349 13.759666
5.2899513 1.0992968 0.81234807 11.5
5.2856822 -1.7576436 0.82098401 11.449124
5.2851954 0.017355671 0.83963394 14
5.287272 -1.8992575 0.84839696 12.573
5.286418 1.5834061 0.84958875 12.666667
5.2823172 0.9452402 0.85029221 13.386429
5.2858276 1.3248696 0.85661471 13
5.2801895 -2.5751085 0.86182219 11.669001
5.2819376 0.28945035 0.86007053 12.333333
5.2804527 1.3842553 0.87389576 11.959785
5.2872529 1.9117107 0.87200785 12.5
5.2805061 1.5447924 0.88238871 13.106
5.2883749 -2.1335504 0.89578938 11.643072
5.2899776 -1.6152766 0.90707862 12
5.286603 1.0123204 0.90119463 12
5.2866449 2.1333182 0.90152407 12.5
5.2833033 2.1580968 0.90475923 12.610375
5.2841902 -1.3605111 0.91493881 12.333333
5.2899075 1.3130484 0.91546178 12
5.2898207 -1.4181647 0.92121178 12.41
5.2892785 -1.275084 0.92858475 12.5
5.2827539 0.73754787 0.93111509 11.59675
5.288259 -2.0703514 0.94400913 12
5.286386 -2.0557253 0.94198793 12
5.2826214 -1.611641 0.95119894 14.0745
5.2890162 -3.5732484 0.97087103 12.0645
5.2885265 -4.3731589 1.0058597 12.0665
5.2876253 1.8730735 1.0028645 12
5.2828665 0.35888222 1.0135777 12
5.2805109 0.53760076 1.0204198 12
5.2812819 2.3193634 1.0211498 12
5.2897725 -1.0094229 1.0573615 13
5.2830138 0.76364005 1.0586842 14
5.2820578 0.8065843 1.0611051 13
5.2803683 0.90657431 1.0649959 13
5.2834539 0.91703987 1.066206 13.5
5.2878137 1.5971508 1.0622154 12
5.2824521 1.0852989 1.0740435 13
5.2836919 1.2164576 1.0851852 13.5
5.2833533 1.2655566 1.0840472 13
5.2852716 1.5296141 1.1011374 13
5.2857189 1.5164505 1.1100541 13.5
5.2820711 -2.4791842 1.1287487 13
5.2885518 -1.5323812 1.1311468 14
5.2855315 -0.30923751 1.1502454 13
5.2843981 1.7733231 1.1608233 13.769333
5.2856221 -0.53835458 1.2045286 13.587
5.2800636 2.5831194 1.2095382 12
5.2812986 -1.7450726 1.2114904 13
5.2836552 -0.19168864 1.2105753 13
5.2832775 0.11207952 1.2115929 13
5.2844644 0.40811402 1.217839 13
5.2840052 0.70824748 1.2276672 13
5.2839398 -1.4629567 1.2461725 12.5
5.2872534 1.0078331 1.2431736 13
5.2856517 1.3074985 1.2612664 13
5.288435 1.6101239 1.285081 13
5.2813153 -0.31020412 1.3288847 14
5.2856035 0.090234555 1.3289266 14
5.2889233 0.39183643 1.3344258 14
5.2825198 1.0023103 1.4145155 14
5.2853808 1.6070406 1.4626836 14
5.2854347 1.8767821 1.4894704 14
5.2849731 -3.1198494 1.5592818 14
5.2823353 -3.1422625 1.5618235 14
5.2996397 -1.7220345 0.28560564 9
5.2988057 -0.40062642 0.3065753 8
5.2906599 0.11632674 0.38699579 9
5.2976751 -0.44494954 0.4239935 10
5.2929425 -0.30832672 0.44697097 10
5.2936339 -0.0077439146 0.44672737 10
5.2941647 0.82760197 0.45711681 9.25
5.2930298 -0.28480852 0.48134413 10.5
5.2902727 0.36891058 0.49439999 9
5.2958517 0.13703999 0.50734395 10.5
5.2997932 0.71858186 0.51063204 10
5.2988191 -1.2675707 0.53548574 10
5.2914724 -1.5507555 0.54996991 10.075
5.2965651 1.381933 0.55619544 10
5.2965417 1.412336 0.55754244 10
5.2961588 1.6182319 0.56745428 10
5.2919903 1.6728503 0.56196773 11
5.2957182 1.2673877 0.57079709 11
5.2930055 0.41932422 0.63609725 10.5
5.2958069 -0.023052871 0.65478247 11.8
5.2997136 1.310286 0.66134083 10.5
5.2915182 -0.38055542 0.67230648 12
5.2923856 0.77781236 0.67137033 10.666667
5.2967157 1.5888125 0.67218506 10.5
5.2998772 1.3257687 0.69885218 11.5
5.2911434 -0.30939573 0.70762736 11.5
5.290812 0.48883986 0.71566266 11
5.2980461 0.73528498 0.73975414 11.333333
5.2957311 -1.3621982 0.75085485 10
5.2982712 -0.79755062 0.77815944 13.082751
5.2938538 0.93525803 0.78912163 11
5.2909293 2.1633124 0.78881598 11.1025
5.291543 -2.3442435 0.80675483 11.796319
5.2966123 -2.0402012 0.80076027 12.071167
5.291172 -2.0656252 0.81549895 11
5.2924385 0.61810535 0.8254602 12
5.2930779 1.8972636 0.83566046 11
5.290359 1.6603407 0.84109277 12.5
5.2942896 -1.0765045 0.85973853 12.083
5.2999773 0.33242354 0.85515529 14
5.2974391 2.4397736 0.8831414 12.112
5.2918901 -2.9288895 0.89962626 12.067249
5.2988997 -1.5304408 0.8982442 13
5.2994814 -1.7713182 0.90937495 11
5.2924933 -2.0631435 0.92522162 11
5.2967005 0.63428754 0.92103469 12.845875
5.2952042 -3.2677896 0.93697929 12.06575
5.2941327 1.3583255 0.97148377 14
5.299202 -1.8127315 0.98201549 12.5
5.29671 -2.9722135 0.99303973 11
5.2977853 1.4972295 0.99108219 14
5.2903399 2.155509 1.0059633 12
5.2945471 -1.7734399 1.0388691 13
5.2940388 0.059531186 1.0745382 12.5
5.293294 -1.0751556 1.0810937 13.583
5.2918844 -0.31096825 1.0926198 12.666667
5.2924595 1.8123411 1.1131805 13.333333
5.2988062 0.089361086 1.152442 13
5.2942057 2.0495434 1.1663446 13.60425
5.2936158 -1.4673263 1.177353 12
5.2970972 2.0939279 1.1715044 13.5
5.2942109 2.1766651 1.18049 13.5
5.2994623 2.4042945 1.2941654 14
5.2905226 1.8787984 1.3089567 13
5.2949872 1.9550627 1.3171861 13
5.2927752 0.59054142 1.3413144 14
5.2994409 0.88666314 1.3558789 14
5.2924142 2.5911651 1.4570874 13.5
5.2979908 1.9560771 1.5013118 14
5.2935305 -2.8100543 1.519682 14
5.2902179 -3.0162115 1.5462284 14
5.3091755 -0.23474616 0.10128416 8
5.3030944 -0.92232621 0.22446562 7
5.3040056 0.94075388 0.2775405 9
5.3010397 1.5788177 0.2857441 9
5.3064508 -2.0846136 0.29204723 9
5.3022027 0.64341789 0.34999892 9
5.3028097 0.40698138 0.39140984 9
5.3036585 -0.39974636 0.40469891 10
5.3075604 2.0718958 0.40974444 8.6077499
5.3086905 -0.38350865 0.42141229 9.5
5.3075128 -0.79090804 0.43176791 9.749445
5.3079381 0.010323049 0.44548285 8.333333
5.3000779 -1.4675204 0.46286771 10
5.3010306 -1.4617869 0.47840914 8
5.3066993 1.574739 0.4723649 10
5.3082471 2.120513 0.47886133 10
5.3083386 2.1360536 0.47978419 10
5.3047481 0.015256085 0.48078123 10.5
5.3033805 -1.6042851 0.54069692 9
5.3051448 -1.362528 0.54675418 8.5
5.3095388 1.8581132 0.54709762 9
5.3015571 -1.2154055 0.55420858 10
5.3015819 0.3311514 0.61103201 11.2
5.3067493 1.0453777 0.62553829 10.333333
5.3017206 -1.4476902 0.64260882 11
5.3026476 -1.603403 0.67676318 10.5
5.3028798 0.65748847 0.68658966 11.333333
5.3062649 1.5267222 0.6903308 11.5
5.3046923 1.8709058 0.69140708 10
5.3035374 -1.4610091 0.70921659 11
5.3014369 0.089808486 0.70876759 11.5
5.3037786 -1.532886 0.71641523 11
5.302228 0.39388478 0.71152896 11.5
5.3070045 1.242363 0.71838307 12
5.3012834 1.2651943 0.72653669 10.5
5.3098059 1.5656172 0.74447852 10.5
5.3047214 -1.7893248 0.77951509 11.666667
5.3046498 0.38349634 0.78977573 13.296701
5.3061438 1.8259965 0.78433871 10.666667
5.3064394 -1.6206745 0.81831437 12
5.3060622 0.91539758 0.82878375 12
5.3087993 -1.8546917 0.84552002 12
5.3072205 1.6528256 0.87899178 11.666667
5.3095984 -2.7839878 0.97858477 12
5.3004465 -1.4635254 1.0228757 11
5.3053956 -0.40231848 1.0441707 14.085751
5.3005829 -2.6131635 1.1259253 14.0675
5.3037243 0.39666009 1.1577195 13
5.3060045 0.59067345 1.1632277 13
5.3081622 0.89082301 1.1750025 13
5.3032336 1.9750738 1.3211833 13.1015
5.3059936 -1.1397444 1.3643912 14
5.3034668 1.1928523 1.3743727 14
5.3004336 -1.4637599 1.3838764 14
5.3192348 -0.90911794 0.2323148 8.333333
5.3158617 0.095742524 0.23564044 7
5.3175063 -1.5881938 0.27534264 7
5.3108864 -0.008289393 0.27416992 9
5.3140078 -2.2245526 0.29504833 9
5.3116021 -1.4659574 0.29281795 9.0804996
5.3139911 -0.12540606 0.3093099 8
5.3120856 -0.48022935 0.34346426 9
5.3165679 -2.2772207 0.35086685 9.0705004
5.3140702 -1.3999951 0.38460931 9
5.3150277 1.3046147 0.40907991 9
5.3120484 -0.85001504 0.4197672 9.0814371
5.3149195 -0.41497812 0.41484657 9.5157146
5.3128743 1.5886679 0.41607654 9
5.3137097 -2.0981488 0.44325751 9.0718336
5.3106241 0.29757485 0.44971684 10
5.319994 0.45188528 0.44679192 9.8117847
5.3197656 0.60929555 0.44705975 9.666667
5.3152866 -1.1004918 0.45206118 9.5
5.3196454 0.0046230699 0.46015564 9.8921995
5.3120456 0.31345499 0.48271608 10.5
5.3158193 1.4696852 0.50598878 9.6032505
5.3179302 0.7152375 0.55853432 11
5.3150234 1.8206553 0.5967105 11
5.3173637 1.7164007 0.66150516 11
5.3155622 0.78205538 0.68063653 11.666667
5.3177152 2.1606438 0.7250607 11
5.3180842 1.1913086 0.73325998 11.5
5.3140783 1.5238875 0.7339111 12
5.3166571 0.94137233 0.76993632 11.75
5.3196568 -1.440949 0.77382892 12.2767
5.3168058 -1.1474869 0.83401698 11
5.3142147 0.60394108 0.87859541 14
5.3173289 2.4181736 0.87808394 12.5
5.3177729 0.73786706 0.8908686 14
5.3125095 -1.1524723 0.90256101 14.079
5.3150539 1.6852194 0.90717435 13
5.3101549 1.1296307 1.0026805 13
5.3183546 1.3915215 1.0173913 13
5.3191543 -1.6548879 1.0314597 13
5.3148956 1.7676928 1.1203225 12
5.3179741 2.4566061 1.1354637 13
5.3157926 0.78311324 1.1774383 13
5.3146267 -1.4684497 1.1999766 13
5.3143945 1.1911812 1.1912234 13
5.3156114 1.4670112 1.2087487 13
5.3169374 2.1253963 1.2463754 13.10225
5.3168225 -3.5839605 1.2876159 13
5.3126049 1.5387672 1.3387465 13.666667
5.3186913 2.110445 1.4577776 14
5.3253827 -0.24889205 0.1879583 8.5
5.3208709 -1.2225175 0.20274726 7.5
5.3240347 1.5795903 0.29050738 9
5.3257747 0.81203258 0.32333139 8.8993998
5.3244653 -0.27830276 0.33115727 8.9629679
5.3290195 0.35415664 0.3480458 9
5.3276505 -1.622043 0.36735675 9.4084997
5.3282843 1.8359632 0.39270166 8.5059996
5.3264918 0.013655646 0.42803931 9.5
5.3207712 0.30176422 0.43020105 10
5.3255677 0.6882425 0.45519349 10
5.3228831 1.575281 0.45112568 10
5.3264871 1.1923283 0.46436623 10
5.3222313 1.911317 0.46856463 10
5.3254814 0.95790929 0.47012508 10.333333
5.3292675 1.4627551 0.47125095 10
5.3228073 -0.45329762 0.48114711 9
5.3290949 -0.075997584 0.49954316 10
5.3225403 1.1987841 0.4993434 10.5
5.3250599 1.512059 0.50973916 10.5
5.3222423 -0.81545752 0.51092249 10.333333
5.3211079 1.8107338 0.54582369 9
5.3214893 1.7649642 0.5948348 11
5.3247585 0.63548338 0.60764492 11
5.3246408 1.8782364 0.65597582 11
5.32373 1.6981215 0.66148394 11
5.3218932 1.7595857 0.67215484 11.6025
5.3245568 0.28423929 0.70654207 12.25
5.3297024 0.58859396 0.70131218 12
5.325439 2.1357677 0.72370851 11
5.3219604 -1.548468 0.75213885 12.07525
5.3260803 1.810366 0.75266188 12
5.3293581 2.1022632 0.77298826 12
5.3223577 2.4758492 0.80099612 12.106501
5.3248949 -1.4725938 0.82972324 12
5.3224745 0.80949801 0.82636887 13.301351
5.3283129 1.9891748 0.84038991 12.194751
5.3238964 1.6469755 0.86433882 12.751822
5.3217554 0.5816251 0.87844747 14
5.3212752 1.8176157 0.89033955 12.666667
5.3269663 2.179883 0.925632 12.5
5.3296442 -3.0776663 0.93114156 12
5.3211946 1.2033119 0.9460457 14.1052
5.3226371 1.7972431 0.94875312 12
5.3205132 2.2035747 0.98838687 13
5.3290048 -1.1760969 1.0656395 12.5
5.3281784 -3.5724077 1.2149636 12.5
5.329936 1.792832 1.3518912 13.6
5.3208923 2.1418633 1.4616982 14
5.3276525 -2.6807172 1.5111624 14.0765
5.3366785 -0.031857766 0.20238493 8
5.3305774 -0.61773598 0.27608058 9
5.3362083 -1.4240537 0.31761736 7.5
5.3388019 -0.72044778 0.3164371 8.9722776
5.3363886 1.6665803 0.31374553 8.8210707
5.3338332 -1.6186174 0.32129005 7.5
5.3314319 -0.090421334 0.36170006 7
5.3342905 1.7331357 0.36653706 9.5
5.3342023 -0.43425372 0.38546693 9
5.3356338 0.090489328 0.38300458 9.3776426
5.3389115 0.65758049 0.38586983 8.6515551
5.3345146 0.26821455 0.44308406 9.666667
5.3306041 0.69404215 0.44219562 9.6001663
5.3304963 1.4463395 0.44580081 10
5.3301811 0.99167514 0.46053109 10
5.3307362 1.2392824 0.46955267 8.6000004
5.3301296 -1.9577789 0.47695586 9.0772495
5.3383989 0.34742224 0.50585651 10
5.3385501 2.187819 0.51577514 10
5.3342438 -1.4455136 0.56547844 9.333333
5.3340359 1.408048 0.65814584 11
5.3346796 0.72960424 0.75664598 12.5
5.3380747 2.2255368 0.75371134 11
5.3335137 1.5103998 0.76657832 11.6
5.3391285 2.1156135 0.77619117 12.1045
5.3314538 2.1820221 0.77906513 12
5.3322101 1.2321005 0.84699738 12
5.3334198 -3.1280894 0.93575466 12
5.335794 -3.105443 0.93423015 12
5.3390613 -3.6013355 1.0067695 11
5.3392239 -3.5773082 1.0028518 11
5.3344188 1.7939135 1.0393904 14.11
5.3306527 -3.5965691 1.148363 12
5.3381286 2.5059924 1.3175515 14
5.3302903 -2.7041407 1.5148356 14
5.3373432 1.988626 1.5153131 14.1015
5.348042 -0.23712091 0.13977768 8.0889997
5.3403063 -1.147848 0.20319851 7.5
5.3463058 -0.11736276 0.23399661 7
5.3410435 1.4401567 0.28617704 9.1005001
5.3404164 2.20784 0.35393831 8
5.3441305 -1.7676674 0.4191049 8.9313564
5.347384 -1.4161575 0.42999056 9.0768328
5.3431091 1.0240469 0.45009992 8.5
5.3477674 1.6608216 0.48555553 10
5.3418941 1.7939419 0.49247503 10.055
5.3488889 0.71948695 0.5776298 10.5
5.3480968 0.88035738 0.727018 12
5.342001 1.6635461 0.74816799 11.5
5.3404293 1.692064 0.75104833 11.5
5.3429875 2.4906874 0.80480939 12
5.3453684 -0.81964761 0.82926488 11.5
5.3425326 2.2353091 0.87621945 12
5.3467164 -1.5404425 1.0494425 11
5.3407154 1.7439419 1.1229428 12
5.3463283 2.4985259 1.146358 13
5.3410611 0.11318642 1.1539923 13.092
5.3493252 2.2143624 1.476509 14.1025
5.3533731 0.47700563 0.27246588 8.5959377
5.3530984 1.1800224 0.28574964 9
5.3576651 1.4751841 0.29046538 9
5.3503151 0.82068461 0.32286686 8
5.3593688 -1.4667113 0.33502725 7.6666665
5.3586688 1.54691 0.46726489 8.5
5.3590884 0.57791018 0.52848679 10
5.3599677 -3.0471907 0.54622155 9
5.3504872 2.062901 0.6621322 11
5.3504705 1.9054399 0.72068781 11
5.3596973 -3.0693612 1.1190326 12.5
5.3548994 -2.9324975 1.1553186 13
5.3527093 1.7507168 1.237556 13
5.362515 -0.15381941 0.22477797 8.0889997
5.3624134 0.62908781 0.22087383 8.666667
5.3600187 0.34270856 0.23368093 8.75
5.367156 2.0321677 0.24299029 8.1092491
5.365272 -2.3222992 0.2749514 8.0695
5.3641181 -2.1903715 0.32747024 7
5.3616209 1.0604688 0.32788077 8
5.3602448 -0.21688083 0.40273184 8.6875
5.3644953 0.62492317 0.41817141 8.333333
5.3604331 -0.14161721 0.51459146 10
5.3651299 -0.099229135 0.51549041 10
5.3647132 0.40455896 0.61091775 11
5.3669214 -2.9610841 0.70404112 9.666667
5.3628197 -3.0598414 0.79703748 10
5.3689022 -3.0723627 0.92750156 11
5.361218 -2.299145 1.03475 13
5.3754659 -1.0774319 0.10299128 8
5.3791013 0.2477524 0.37738004 8.5919991
5.3729391 2.0683072 0.41526228 9.2784166
5.3713536 -2.7697155 0.52806169 9
5.3737493 -2.8156116 0.65040147 9.5
5.3779383 1.6576868 0.85414582 12
5.377696 -2.7992036 0.94932079 11.5
5.3776312 -2.8260276 0.95350701 11.5
5.3743644 -2.9693725 0.99728864 11.666667
5.3797731 2.3333979 1.4973737 14.103
5.3866944 -0.065432206 0.13235931 7
5.383935 0.90520686 0.19452536 8.5
5.3884745 -2.5917003 0.27885973 8.0679998
5.3896112 -0.55694801 0.27893779 9
5.3850279 1.204138 0.27526659 8.1049995
5.3898244 -0.050681926 0.39207935 9.0915003
5.3814616 1.5948733 0.39981905 8
5.3880315 -2.4214776 0.4638328 9
5.3876357 -1.4162107 0.52393383 9.666667
5.3873119 -1.0043278 0.55845875 10
5.3807707 0.791251 0.72600168 12.101
5.3833823 -2.7900732 0.76705337 10
5.3822684 -1.3415115 0.89989769 13
5.3825817 -1.9503971 0.98178893 13
5.3825207 -2.8197539 1.1386772 13
5.393435 -0.93344545 0.13334978 7
5.3964753 -0.43869293 0.31732786 8.4869995
