# .PCD v0.7 - Point Cloud Data file format
VERSION 0.7
FIELDS x y z intensity
SIZE 4 4 4 4
TYPE F F F F
COUNT 1 1 1 1
WIDTH 1309
HEIGHT 1
VIEWPOINT 0 0 0 1 0 0 0
POINTS 1309
DATA ascii
-8.698431 2.2008116 1.7280378 11
-8.4044142 -0.2503573 -0.55088073 6
-8.4767704 0.64425659 -0.5584203 6
-8.4920444 0.4459866 -0.11130226 7
-8.4655581 0.57982135 -0.11126623 7
-8.4096537 4.0644093 -0.13085301 7
-8.452529 -0.26871669 0.33662596 8
-8.4580994 0.39598966 0.78232718 9
-7.2261233 -0.2492231 -0.89361501 5
-7.2962604 0.95209789 -0.90684658 5
-7.2475152 1.2554177 -0.9058249 5
-7.2167463 1.5581986 -0.90700346 5
-7.186729 1.8637071 -0.90906423 5
-7.2350936 2.8168342 -0.93241 5
-6.3110571 -0.42969155 -0.43401554 6
-6.2958808 -0.47174972 -0.062478431 7
-6.3208961 -0.44424212 0.30787838 8
-6.3260198 -0.43949708 0.68127745 9
-6.3268366 -0.44020262 1.0578523 10
-6.3387485 -0.44229966 1.4342659 11
-6.2669106 -0.44655988 1.8036393 12
-6.1209459 -0.29445314 1.7797025 12
-6.2895098 0.38141057 1.8038512 12
-6.215446 0.68146706 1.7937088 12
-6.1516819 0.98575884 1.7865946 12
-6.14151 1.227615 1.7882204 12
-6.1152182 -0.36760846 1.779435 12
-6.1057458 1.362368 1.7849072 12
-6.0657916 1.5802348 1.7829375 12
-6.0251579 1.8731356 1.7833804 12
-6.0029597 2.17925 1.788304 12
-5.9555621 2.4421208 1.7893534 12
-3.5833154 2.098546 -0.59226561 5
-3.4427569 -0.41849613 -0.27437675 6
-3.558738 2.1089063 -0.30189875 6
-3.568006 -0.42318439 -0.0055497219 7
-3.5773814 2.1012449 -0.017759597 7
-3.5996993 -0.41005972 0.27023038 8
-3.5819888 2.1179371 0.26692468 8
-3.5161502 -0.40606207 0.54427379 9
-3.5451341 2.122021 0.5518316 9
-3.5833495 2.1313338 0.84289312 10
-3.6126463 2.1219623 1.1339538 11
-3.5762017 2.126488 1.4214046 12
-3.2248428 -0.20795944 -0.79732913 4
-3.2090607 0.6900835 -0.80145109 4
-3.1908619 0.95533025 -0.80336404 4
-3.1562717 1.2861962 -0.80590075 4
-3.2981176 2.0957255 -0.56707263 5
-3.2824948 2.1080868 -0.28697535 6
-3.2839186 2.0959649 -0.01174215 7
-3.294107 2.1137288 0.26312071 8
-3.2672215 2.1200764 0.5387693 9
-3.3485351 -0.39752671 0.80768722 10
-3.256664 2.1305256 0.81643933 10
-3.3209727 2.1170945 1.1003048 11
-3.295434 2.1238856 1.3794223 12
-3.1099131 1.6157656 -0.80859911 4
-3.0546837 1.8763745 -0.80975467 4
-3.0158789 2.0732658 -0.81170213 4
-2.9773126 2.091537 -0.53877383 5
-3.0133424 2.1041143 -0.27241668 6
-2.9634793 2.0919147 -0.0051991655 7
-2.9672966 2.107075 0.25881305 8
-2.9966607 2.1141105 0.52604163 9
-2.9883878 2.124552 0.79466271 10
-3.0024369 2.1136801 1.0637032 11
-2.9955022 2.1191771 1.4243642 12.333333
-2.8446631 2.1178524 2.1258264 14
-2.6682272 2.0996969 -0.57618731 4.75
-2.6990504 2.1377916 -0.25614706 6
-2.6742575 2.1025341 0.00058255362 7
-2.682384 2.1185238 0.25510454 8
-2.7084198 2.1159182 0.51261318 9
-2.705699 2.1230445 0.85768843 10.333333
-2.7231479 2.1261115 1.2944973 12
-2.7169974 2.1299586 1.5587069 13
-2.6489134 2.1149683 2.0762146 14
-2.3749988 -0.41815206 -0.21498469 6
-2.3542404 -0.4503049 0.019872021 7
-2.3907945 -0.4401834 0.25370824 8
-2.2986586 -0.43434972 0.4852187 9
-2.1835172 2.0892324 -0.71133935 4
-2.0448277 -0.45323288 -0.19664216 6
-2.1082659 -0.45599103 0.025020996 7
-2.1447909 -0.44644681 0.25034913 8
-2.0181572 -0.43800327 0.58301002 9.5
-1.7064589 2.0799778 -0.65358436 4
-1.7108659 2.0721488 -0.31487724 5.5
-1.7737505 2.0716047 0.01898204 7
-1.7546993 2.085633 0.24298647 8
-1.7471843 2.0927155 0.59733015 9.5714283
-1.7169919 2.0855343 0.91676646 11
-1.7483141 2.0831602 1.1489927 12
-1.7203389 2.0969565 1.3760152 13
-1.731797 2.0876155 1.8440939 14
-1.3504173 -0.42753193 -0.76519603 3
-1.3616879 -0.17272945 -0.76565439 3
-1.3541899 0.37324509 -0.76750237 3
-1.3374931 0.67408544 -0.76991415 3
-1.5113219 2.0830159 -0.63036549 4
-1.5090021 2.0728865 -0.30078605 5.5
-1.5132191 2.0767422 0.024153668 7
-1.3210723 -0.44828486 0.43780181 9
-1.5013567 2.1015818 0.2397795 8
-1.4871488 2.1153295 0.55294037 9.4444447
-1.3297482 -0.4509744 1.0415775 12
-1.5627909 2.0912101 0.899643 11
-1.4936272 2.1195369 1.1502546 12.166667
-1.5428166 2.0944753 1.3439164 13
-1.5211388 2.1079106 1.7934985 14
-1.2986491 0.97242761 -0.77113891 3
-1.2523973 1.2698482 -0.77364308 3
-1.1730198 1.6117857 -0.77557689 3
-1.0750194 1.8968937 -0.77468091 3
-1.0646777 2.0776632 -0.57699603 4
-1.0425582 2.0722229 -0.16702302 6
-1.0336764 -0.47180325 0.047479853 7
-1.0400627 2.0727289 0.033605672 7
-1.0595266 -0.46503437 0.32957622 8.5
-1.1979675 2.1436348 0.23604393 8
-1.2730503 -0.44468519 0.63420039 10
-1.1938976 2.1482749 0.53595358 9.4444447
-1.1618818 -0.45603904 0.91497141 11.5
-1.1888735 2.1477971 0.86011821 11
-1.2350303 2.1663103 1.1404834 12.285714
-1.1624533 2.1582835 1.4941404 13
-1.19042 2.156605 1.7161518 14
-0.99982291 2.0409505 -0.77131373 3
-0.92114097 -0.47691062 -0.60194755 3.5
-0.8611778 2.083204 -0.65357232 3.5
-0.86702365 -0.47833228 -0.31603286 5
-0.90345263 2.0591578 -0.35813525 5
-0.88512325 -0.471679 -0.071448557 6.3333335
-0.80765361 2.0673859 -0.058221813 6.5
-0.83018351 -0.46838602 0.29287729 8.333333
-0.89461762 2.1437931 0.33099449 8.5
-0.82716602 -0.45386815 0.59699428 10
-0.88229126 2.1481941 0.62818533 10
-0.8707574 -0.45823509 0.87590009 11.5
-0.85842878 2.1519716 0.90978336 11.428572
-0.98624277 2.1663885 1.0428107 12
-0.86450684 2.154882 1.4991264 13.333333
-0.93656522 2.1551149 1.6538371 14
-0.58813649 2.0760858 -0.7113151 3
-0.52478182 -0.48383945 0.00091656088 6.6666665
-0.54820061 -0.47657242 0.28607991 8.333333
-0.60645115 2.1373894 0.33299658 8.5555553
-0.53620231 -0.46135715 0.57275355 10
-0.58867925 2.1406088 0.60526234 10
-0.62877345 -0.46296197 0.84508389 11.5
-0.55503732 2.1426702 0.87191784 11.428572
-0.57955509 2.14884 1.4600695 13.454545
-0.14856346 -0.41519606 -0.73318797 2
-0.16613805 -0.25780258 -0.73470271 2
-0.18368892 0.54008102 -0.74489331 2
-0.1824546 0.74205369 -0.75069988 2
-0.21713404 2.0497909 -0.55223244 3.5714285
-0.26060086 -0.48627338 -0.2611706 5
-0.19665135 2.0448599 -0.29796216 5
-0.23599824 -0.48469931 -0.032255724 6.4000001
-0.22843525 2.0545933 -0.037370153 6.5
-0.2599259 -0.47818846 0.32187849 8.6000004
-0.29157791 2.1268609 0.30534095 8.454545
-0.26269433 -0.47174722 0.63144553 10.5
-0.29183334 2.1320856 0.58224356 10
-0.37994176 -0.47280478 0.89571536 12
-0.29261142 2.1347399 0.85894537 11.538462
-0.37563637 -0.47285858 1.2379689 13
-0.27610818 2.1392677 1.3072983 13
-0.28139272 2.1359043 1.4934332 14
-0.052217703 1.33069 -0.75239116 2
0.017927252 1.5674801 -0.75409591 2
0.030591482 1.9986204 -0.62974268 2.9000001
0.071031302 -0.49082175 -0.28126085 4.6666665
0.030914018 2.0497115 -0.35563433 4.5454545
0.063192204 -0.49118134 0.010207525 6.5999999
0.014450323 2.0493822 -0.02872565 6.5
0.043509465 -0.48502827 0.28110853 8.3999996
0.11828657 2.0648558 0.21939805 8
-0.020431653 2.1086514 0.33328536 8.666667
0.042784777 -0.47684813 0.58547854 10.4
0.083353341 2.0786726 0.71800303 11
-0.02181722 2.1110482 0.61782873 10.333333
0.023118066 -0.47693974 0.99035215 12
-0.051171124 2.1202638 0.84955484 11.666667
0.015462618 -0.47827369 1.2292792 13.5
-0.036594253 2.1149275 1.2557924 13
-0.043894853 2.1177046 1.4347622 14
0.30285361 2.0206363 -0.62463796 2.7
0.32132885 -0.49496686 -0.28005463 4.5
0.31323496 2.0462196 -0.3354364 4.5
0.349264 -0.49612859 0.0056396532 6.5
0.31579757 2.0412483 -0.01801035 6.5
0.33416745 -0.48986948 0.28773314 8.5
0.33242783 2.0474265 0.28798726 8.454545
0.33521518 -0.48327279 0.5575946 10.4
0.32510796 2.0517609 0.60447794 10.454545
0.34208974 -0.4833478 0.93015844 12
0.32620901 2.0520475 0.95769864 12
0.3348816 -0.48452997 1.1518146 13.5
0.35035524 2.0488176 1.231276 13.375
0.25703755 2.0512741 1.3560284 14
0.6418094 -0.37354091 -0.71303582 1
0.62858015 0.67988312 -0.72812241 1
0.7320509 1.1323348 -0.73017049 1
0.75752795 1.2286173 -0.73148108 1
0.59516668 2.0320575 -0.60414249 2.5454545
0.65726858 -0.50237519 -0.20392382 4.8000002
0.61715043 2.0412772 -0.30590105 4.5
0.6447435 -0.50125909 0.0080373865 6.4285712
0.61809415 2.0352466 -0.0075604231 6.5
0.63721365 -0.4946405 0.28731009 8.5714283
0.62770301 2.0424421 0.29400861 8.545455
0.59875816 -0.48834708 0.5323413 10.4
0.6136744 2.046839 0.58573765 10.5
0.57220495 -0.48895854 0.95584548 12.5
0.63152713 2.0434945 0.96041578 12
0.57680279 -0.48862156 1.162608 14
0.6150201 2.0435209 1.2051042 13.571428
0.81740838 1.3746544 -0.73019427 1
0.93966216 1.6569513 -0.73028791 1
0.94778317 2.004946 -0.58462918 2.2666667
0.93784481 -1.4505628 -0.17296273 5
0.86407191 -0.50580055 -0.20147547 4.6666665
0.9171775 2.0341098 -0.27147216 4.5384617
0.89616293 -1.9614375 -0.054555502 6
0.90475941 -1.5723118 -0.046015024 6
0.95325905 -0.50741643 -0.0061056898 6.1999998
0.91875786 2.0292451 0.0027728402 6.5
0.94104546 -0.49959642 0.30411622 8.8000002
0.91456205 2.0378346 0.28473711 8.5384617
0.84246683 -2.0222375 0.58867121 10.571428
0.83944869 -0.49000525 0.45843843 10
0.90343398 2.0407712 0.56001323 10.5
0.83876234 -1.9848596 0.79126012 12
0.94934863 2.0356789 0.93834555 12.222222
0.8874163 2.0369437 1.1348011 13.5
1.1314354 -0.35404783 -0.72513616 0
1.125605 -0.29762065 -0.72521555 0
1.1401129 0.5542255 -0.72604358 0
1.1519743 0.62157494 -0.72619247 0
1.2514931 1.0250802 -0.7278567 0
1.3428168 1.2804863 -0.72870559 0
1.223881 2.0262508 -0.57817459 2
1.2484682 -0.51256335 -0.23633707 4
1.2338449 2.0261238 -0.30500692 4.0555553
1.2382869 -0.51233375 -0.015094961 6
1.2110624 2.0237041 0.0074897562 6.4615383
1.2335854 -0.50475425 0.30828309 8.9375
1.2204374 2.0318596 0.27123794 8.5
1.3233988 -0.50380164 0.69032001 11.5
1.2035704 2.0345545 0.57068068 10.5
1.3461169 -0.48930618 0.9066835 13.5
1.22633 2.0307906 0.9289211 12.5
1.214237 2.030874 1.133778 14
1.6811115 -1.122125 -0.51547289 1
1.5918345 -0.52068371 -0.56972456 0.33333334
1.4178582 1.4287021 -0.72671843 0
1.5109111 1.6119651 -0.72714806 0
1.5182576 2.0271657 -0.58752131 1.5454545
1.4461591 -1.7906784 -0.26481804 4
1.4735674 -1.2233403 -0.23134832 4
1.6768658 -1.1577119 -0.37835139 2.3333333
1.5243021 -0.52083683 -0.24647895 3.5714285
1.5028005 2.0208242 -0.30504763 3.8235295
1.564437 -1.6835206 -0.13049756 5
1.5797606 -1.2651403 -0.11336754 5
1.5361738 -0.51870024 0.0010590804 6
1.5355517 2.0178797 -0.012371933 6.1999998
1.5345682 -1.5238459 0.32121792 9
1.5600277 -1.2345091 0.33932954 9.25
1.5341771 -0.5123924 0.27282742 8.7142859
1.4635977 2.0302017 0.25824672 8.4444447
1.5794374 2.0987236 0.28719169 8.6999998
1.5431528 -1.5352415 0.54647213 11
1.5498351 -1.2890871 0.64123338 11
1.5966457 -0.51220793 0.59440428 11
1.4555588 2.0369334 0.55021781 10.5
1.5371516 2.103688 0.60272402 10.625
1.5712318 -0.50653785 0.85337454 13.5
1.4641593 2.04477 0.90186352 12.6
1.5358552 2.1054127 0.88433939 12.5
1.516277 2.0603874 1.0723752 14
1.5137793 2.101486 1.0789598 14
1.8556038 -1.2664547 -0.54716104 0.5
1.7483627 -1.1799809 -0.56261283 0.5
1.8295115 -0.52757698 -0.5023666 0.40000001
1.7837685 2.0075455 -0.57850397 1.2142857
1.8893274 -1.5129855 -0.30285794 3
1.8183043 -1.266355 -0.31330031 2.8181818
1.7146243 -1.1838683 -0.35638648 2.5
1.8463088 -0.52716935 -0.27777082 2.7368422
1.8231783 2.0154481 -0.31168711 3.4615386
1.7186077 -1.4617386 -0.0025136888 6
1.7140975 -1.1960415 0.10301655 7
1.8431628 -0.52315402 0.01763108 6
1.797274 2.0115521 -0.025009962 6
1.8395306 -0.51826739 0.24112312 8.5
1.8303734 2.0894649 0.30725682 8.9411764
1.6768464 2.0958676 0.31997272 9
1.8162841 -0.51492274 0.59175831 11.333333
1.9291707 2.0930812 0.64665192 11
1.7614883 2.1008825 0.6673916 11
1.7922859 -0.51442617 0.82056069 13.714286
1.8292351 2.0913842 0.90764421 13.117647
1.7270212 2.0997581 0.79139739 12
2.1901851 -0.64252913 -0.45596892 0
2.1248062 2.0016148 -0.54044408 1
1.9850229 7.593359 -0.56499088 5
2.1879563 -0.63826293 -0.29469401 1.8888888
2.1138499 -0.54973966 -0.31835899 1.7272727
2.103374 2.0104611 -0.33904129 2.909091
2.1794634 -0.6595158 0.011775782 5.7142859
2.1460495 -0.53680092 -0.0076514101 5.48
2.1001105 2.0051107 -0.023936858 5.875
2.1445177 -0.67262506 0.31487426 9.1000004
2.1686561 -0.53248173 0.29187679 9.045455
2.1029882 2.0859699 0.30409363 9
2.1383922 -0.64728075 0.58729362 11.833333
2.1893747 -0.544083 0.61725539 12.4
2.1194861 2.0869396 0.66352922 11.454545
2.1385615 -0.65897399 0.7696715 14
2.1537004 -0.51645178 0.755409 14
2.094197 2.0869148 0.8721711 13.230769
2.3349321 1.9978218 -0.52934039 0.75
2.3182464 -0.53845668 -0.33186284 1
2.4053614 2.0054147 -0.2871173 3.0555556
2.3287289 5.8084893 -0.18510303 6
2.3048053 -0.53498691 0.0057407627 5.5
2.4178681 1.9992687 -0.018493017 5.7857141
2.2908978 -0.5377112 0.41461277 10
2.4041243 2.0781775 0.26723814 8.7333336
2.2912457 -0.53770822 0.49032125 11
2.4155602 2.0790942 0.59647691 11.052631
2.4159055 2.0774877 0.84463233 13.5
2.6240406 1.992184 -0.51985621 0.33333334
2.5718029 5.1192012 -0.71493536 3
2.8763967 -0.5447436 -0.15003608 2
2.6560185 2.0018733 -0.31104571 2.5
2.8438904 -0.54274791 0.038851023 5.4166665
2.7173462 1.9931197 0.0028732591 5.875
2.8484511 -0.54420066 0.26405928 9
2.7296333 2.0690825 0.26347607 8.7857141
2.8333361 -0.57967532 0.52991414 13
2.7349682 2.0720959 0.58715498 11.315789
2.6911035 2.0707302 0.81435281 13.666667
2.9226999 4.1516685 -0.70344198 2
3.0500758 5.2141142 -0.7058931 3
2.8961215 -0.54080892 -0.20285112 1
2.8953595 1.9965142 -0.25322437 2.8333333
2.9326499 1.9911282 -0.0061200936 5.6666665
2.9022608 2.0673296 0.56762362 11.285714
2.8727124 2.0608168 0.81513673 14
3.2722077 3.4634831 -0.68278313 1
3.299721 4.2412939 -0.69776225 2
3.3296812 5.2429934 -0.6996246 3
3.1836452 3.0700598 -0.081167489 5.5
3.5627174 4.275372 -0.69227314 2
3.7110634 -0.52308381 0.11499116 6
3.5439875 1.2778645 0.12653734 7
3.7180991 1.7983748 0.11869112 7
3.5598233 2.018317 0.11289631 7
3.7078073 -0.5274747 0.23109339 9
3.602772 1.3357092 0.3170346 9.909091
3.7513745 1.5458484 0.35037732 10
3.7430689 1.5641022 0.49902004 12.5
3.5866005 2.0720031 0.63234138 12.8
3.8279929 1.3997607 -0.18209758 1
3.8437452 1.9702542 -0.23500077 2
3.8817427 -0.53406417 0.12182755 6
3.80685 1.4512064 -0.032039452 4
3.8223794 1.5199327 -0.095526144 3
3.8593843 2.040679 0.091225915 6.6666665
3.8811891 -0.53671372 0.1713222 8
3.8661406 2.0320234 0.27549878 9
4.3897395 0.55417573 0.05281993 1.5
4.4203706 0.65418154 0.12197103 5.8333335
4.4058027 0.63878226 0.19413076 8.333333
4.8525395 1.9692391 -0.23918037 1.8571428
4.8257928 1.9723356 0.022765748 5.590909
4.8071899 1.9767247 0.29157031 9.166667
4.8252234 1.970842 0.56351835 12.391304
5.1274467 1.9686344 -0.26994282 1.6470588
5.122992 1.9734051 0.011508313 5.5
5.1108065 1.9755681 0.2997959 9.1904764
5.12182 1.9698898 0.59300166 12.538462
5.4819641 1.9682289 -0.2510559 2.25
5.5549159 -0.58773369 -0.08448448 2
5.4311776 -0.54356045 0.083210088 5.5
5.42837 1.9719659 0.025921475 5.8000002
5.4213581 -0.55058455 0.25377962 8.75
5.4161849 1.9732479 0.29782626 9.0526314
5.4249678 1.96841 0.60745031 12.375
5.6399207 1.9490262 -0.44989666 0
5.662962 1.9553713 -0.27855375 2.0999999
5.7719307 -0.70118505 -0.076403886 3
5.7038078 -0.5502404 0.041760098 5
5.6540494 1.951586 -0.01204066 5.3846154
5.6680274 1.9568678 0.29639912 9
5.7304535 1.9975226 0.60119212 11.846154
5.7898884 2.0194142 0.79916555 14
5.9231625 2.0226371 -0.50916564 0
6.0807099 2.3507264 -0.60548049 0
6.1302423 -0.607023 -0.22394575 1.4285715
6.0849528 -0.55948067 -0.20766461 1.5
6.1387024 -0.59203041 -0.005490494 4.818182
6.0886264 -0.55894625 0.021780476 5.1666665
6.1314988 -0.58812475 0.31144354 9.3999996
6.0925536 -0.55325657 0.19623663 8
6.1247358 -0.61287552 0.5187068 12
5.9735208 2.037564 0.64903331 12
5.9756689 2.0361736 0.83309621 14
6.3826365 1.9594479 -0.54257274 0.33333334
6.3853769 2.7203047 -0.61001825 1
6.335113 2.7507751 -0.60913128 1
6.3611727 -0.5810312 -0.23202042 1.9375
6.462141 1.9905587 -0.28871214 3
6.3499365 -0.57938993 0.019541176 5.4166665
6.4502025 1.9826502 -0.0025618568 5.8571429
6.3499827 -0.57724559 0.30741543 9.1111107
6.3892221 1.981379 0.27589306 8.7142859
6.3429642 -0.57669276 0.59413666 12.5
6.4202943 2.001451 0.58900458 10.857142
6.4454894 2.0025184 0.86050981 13.5
6.7720141 -0.58932281 -0.48182169 0
6.7413983 1.731127 -0.60939878 0
6.5977087 1.9384934 -0.53395975 0.75
6.6993198 2.4164989 -0.60144603 1
6.4902434 2.6268563 -0.60718548 1
6.7271786 3.2457275 -0.61098224 2
6.6326585 -0.58407444 -0.27758676 2
6.5820427 1.9746357 -0.2966277 3.04
6.5764141 2.1841292 -0.32324538 3
6.6361051 -0.58273017 0.005257301 5.48
6.6103606 1.9746945 0.001026054 5.9499998
6.5600834 2.1779082 0.00021070307 6
6.6398025 -0.57987326 0.31450915 9
6.6270881 1.9590428 0.30020127 8.875
6.6066513 -0.57919681 0.60650402 12
6.6010394 1.9716678 0.62101388 11.190476
6.6496625 -0.57367313 0.78333992 14
6.6100287 1.9747498 0.8945089 13.571428
6.9804368 -0.58480036 -0.43738109 1
7.0359459 1.1005486 -0.59357882 0
6.9131622 1.3933343 -0.59940368 0
6.8263845 1.5723091 -0.60346538 0
6.9403224 1.9544629 -0.52352226 1.4
7.0046558 2.9852331 -0.60367221 2
6.8808913 3.1048131 -0.6065377 2
6.9220214 -0.58636701 -0.26352605 2.7272727
6.9065399 1.959218 -0.30505547 3.2857144
6.9423485 -0.58288842 0.032586224 6
6.9146447 1.9577621 -0.0045901802 6
6.9355755 -0.58134055 0.25802293 8.5
6.8888531 1.9682345 0.29856476 8.7692308
6.9152379 -0.57927501 0.60618585 11.35
6.8869395 1.9850731 0.70148885 11.4
6.9381437 -0.5753758 0.82639039 13.666667
6.9404898 2.0049429 0.92645872 13.25
7.1573224 -0.42767626 -0.57394564 0
7.2084632 -0.10364688 -0.57906383 0
7.2040067 0.21669605 -0.58067089 0
7.1757541 0.53652483 -0.58429629 0
7.1446228 0.7326889 -0.58821547 0
7.319561 1.3892601 -0.57500935 1
7.171144 1.7261139 -0.58288974 1
7.0952616 1.9554948 -0.47834006 2
7.1205688 2.8523118 -0.59911925 2
7.2408924 3.8733931 -0.59834373 3
7.2399077 -0.58830428 -0.23591587 3.5
7.2309961 1.9588491 -0.29107425 3.7142856
7.2392321 -0.58526814 0.018022327 6
7.2037277 1.958261 -0.00068946485 6.125
7.1817927 -0.58368975 0.24537535 8.2857141
7.1827154 1.9824352 0.26309532 8.375
7.1273746 -0.57968783 0.58295763 10.75
7.1333442 2.0346599 0.69391823 11
7.0885053 -0.57622886 0.89877313 14
7.1203017 2.034744 0.91749686 12.857142
7.5324707 -0.5882265 -0.50167906 1.5
7.5181351 -0.39069238 -0.55076158 1
7.552608 -0.091386631 -0.55350536 1
7.5556269 0.2411463 -0.55672747 1
7.5378637 0.47352779 -0.55915856 1
7.4986372 0.73771304 -0.56231636 1
7.4273772 1.0688424 -0.56861174 1
7.5467825 1.9617795 -0.55082417 2
7.5716496 3.5401759 -0.58881551 3
7.3627529 3.7576518 -0.59477359 3
7.540504 -0.59172159 -0.29154778 3.3636363
7.5145974 1.9571534 -0.28535244 4
7.5135593 -0.58701545 0.004775452 6
7.5171127 1.9574637 0.03515929 6.5
7.5191736 -0.58578414 0.22450051 8
7.5378828 1.9842682 0.26927543 8.333333
7.6011267 2.0222096 0.54328895 10.4
7.6152325 2.0385065 0.9631362 12.5
7.6120634 2.0387785 1.1686504 14
7.9119554 1.4354308 -0.56576097 2
7.8333764 1.6663944 -0.57054228 2
7.8384066 1.9553368 -0.45774245 3
7.7007041 3.3928967 -0.58486426 3
7.9183116 4.9647484 -0.58756077 4
7.8231854 -0.59278989 -0.1709884 4.6666665
7.81251 1.9556283 -0.25615659 4.4285712
7.829072 -0.58866984 0.03559453 6.375
7.8052125 1.9548928 0.017962694 6.4285712
7.878346 -0.62204081 0.30640993 8.6000004
7.8161306 1.9919097 0.29948223 8.5
7.8995571 -0.62877935 0.61979705 10.555555
7.8207502 2.0251577 0.57140148 10.461538
7.9099002 -0.65157497 0.91670287 12.428572
7.7805128 2.0389335 0.95375377 12.222222
7.8826776 -0.6267072 1.1120013 14
7.8272514 2.0387096 1.1526072 13.545455
8.1693649 -0.58580923 -0.47261703 2.6666667
8.0696754 -0.38190493 -0.54141498 2
8.0984621 -0.1045708 -0.54369402 2
8.1027231 0.2168742 -0.54606152 2
8.097229 0.44602725 -0.54946053 2
8.0594616 0.8373552 -0.55614787 2
8.0032787 1.1173464 -0.56066942 2
8.2368155 1.9771466 -0.51387984 3
8.116642 4.7883902 -0.5837124 4
7.9925766 4.9047103 -0.58655572 4
8.1466236 -0.58954602 -0.2033201 4.6666665
8.1062479 1.9533459 -0.27842394 4.4615383
8.1443281 -0.59196955 0.019214433 6.3333335
8.1188335 1.954674 0.024487058 6.5384617
8.1036921 -0.59163356 0.30151829 8.5
8.1081896 1.9804548 0.28435606 8.333333
8.1291304 -0.59334916 0.5795489 10.4
8.0832367 2.0279946 0.62030995 10.625
8.0703325 -0.58706123 0.95716584 12.5
8.0936689 2.0415406 0.97671628 12
8.0386019 -0.58026987 1.1511408 14
8.0846004 2.0398934 1.2030015 13.5
8.4928761 -0.58960688 -0.47872502 3
8.4606762 1.9528165 -0.54332697 3
8.4353819 4.4367723 -0.57410473 4
8.2954569 4.594492 -0.57803667 4
8.4156036 1.9522927 -0.30102623 4.5
8.4145708 1.9527067 0.010496748 6.5
8.4484282 1.9713067 0.3139737 8.454545
8.4681911 2.016012 0.61216772 10.333333
8.4807167 2.0138845 0.98762715 12.333333
8.4382067 2.0361745 1.2403028 13.25
8.4830055 2.0168369 1.3724324 14
8.8067141 -0.36609551 -0.52382511 3
8.8242311 -0.13019809 -0.52485871 3
8.8377237 0.21691662 -0.52832198 3
8.8331394 0.4926728 -0.53176308 3
8.8089046 0.80101401 -0.53588659 3
8.7681684 1.0987422 -0.54029453 3
8.7058554 1.4285103 -0.54632467 3
8.6114082 1.8095231 -0.55485851 3
8.5763979 4.2833138 -0.57140028 4
8.7128611 1.951847 -0.32844764 4.5
8.7171326 1.9527085 0.0017801753 6.5
8.713871 1.954281 0.32924312 8.5
8.7082081 1.9511015 0.65002126 10.444445
8.6650772 1.9552568 0.90292037 12
8.6994944 1.9604369 1.2477764 13
8.6695929 1.9623445 1.4120737 14
8.959959 1.947415 -0.43826091 4
9.0552664 -0.62805325 -0.31691685 4.5
8.9523783 1.949572 -0.29832482 4.8000002
9.0581408 -0.63125604 0.011485496 6.5
8.9583769 1.9502705 -0.017513186 6.4285712
9.0619478 -0.63088697 0.33737198 8.5
9.0074568 1.9533172 0.33151194 8.454545
9.0389528 -0.63187718 0.63718832 10.333333
8.9873104 1.94743 0.63395333 10.2
9.0306406 -0.62309146 0.9110285 12
8.9966087 1.9537827 0.87585598 11.571428
9.0197439 -0.61073184 1.2449061 13
8.9828672 1.9589834 1.3084298 13
8.968049 -0.59822756 1.400292 14
8.9820642 1.9604158 1.4893308 14
9.2310467 1.9334377 -0.46757072 4
9.2963295 6.7676125 -0.57442927 5
9.3383837 1.9479244 -0.29400831 5
9.3033266 1.9381415 -0.025435189 6.4444447
9.3236971 1.9508711 0.35045469 8.5
9.2722893 1.9436731 0.62373 10
9.3033218 1.9541755 0.90439129 11.5
9.2135878 1.958194 1.3582546 13
9.3299046 1.9589342 1.511501 13.666667
9.7515841 1.7687227 -0.51881057 4
9.6729622 1.9387103 -0.51725054 4
9.5425625 6.4940252 -0.56693238 5
9.6126375 1.9474883 -0.31561306 5
9.607954 1.9476435 -0.043363269 6.4000001
9.6113291 1.9486399 0.36064556 8.5
9.6103306 1.9405361 0.65231216 10
9.5857315 1.9528915 0.94225979 11.5
9.583909 1.957972 1.5397015 13.5
9.8434658 -0.59720695 -0.49286097 4
9.8614006 -0.40278164 -0.4933787 4
9.8776236 -0.1185495 -0.49437127 4
9.8887653 0.26597708 -0.49730402 4
9.8859921 0.55226171 -0.50029635 4
9.8787155 0.84667808 -0.50475264 4
9.8652229 1.1404606 -0.51034796 4
9.8459024 1.3362858 -0.51384085 4
9.9179392 5.9488006 -0.54944092 5
9.773469 6.2129388 -0.55938137 5
10.028643 -0.62857574 -0.31617975 5
9.8101969 1.9459699 -0.33121493 5
10.024871 -0.63866735 -0.038687382 6.4000001
9.798398 1.9485353 0.0031575786 6.6666665
10.031567 -0.62529463 0.34062573 8.333333
9.7793589 1.947104 0.36661181 8.5
10.008761 -0.62086266 0.66947907 10
9.9534931 1.9685683 0.68233597 10
9.9933262 -0.63475585 0.96540564 11.5
9.9786577 -0.62210846 1.5186511 13.25
10.058604 5.7904358 -0.54702461 5
10.258985 2.0050836 0.56455016 9.333333
10.290429 2.0205131 0.93025929 11
10.298129 2.0252352 1.1523849 12
10.302894 2.0289772 1.3770187 13
10.30849 2.0351562 1.8316489 14
10.517488 2.0058453 0.6560185 9.666667
10.540951 2.0212913 0.96021247 11
10.542858 2.0240936 1.1898408 12
10.550933 2.0289161 1.4235125 13
10.441495 2.0333207 1.865589 14
10.740658 -0.58726418 -0.37576574 5
10.785967 2.0018654 0.59784311 9.333333
10.811131 2.0232339 0.99265409 11
10.797678 2.0212898 1.2288952 12
10.813718 2.0285528 1.4729118 13
10.738209 2.0335765 1.9419329 14
11.073878 6.8226585 -0.3389304 6
11.068881 7.0565867 -0.3482697 6
11.148441 2.0235479 0.935247 10.6
11.164567 2.0451071 1.2865611 12
11.110359 2.0312738 1.5290744 13
11.118095 2.0383062 2.0404391 14
11.47549 1.9818609 0.55625474 9
11.49295 1.9735759 0.880054 10.25
11.523768 1.9866868 1.2744557 11.75
11.512925 1.9855973 1.6031646 13
11.497902 1.986326 2.1354537 14
11.659384 -0.54612231 -0.45293865 5
11.69383 -0.35676333 -0.45535594 5
11.718627 -0.037940536 -0.4576036 5
11.721265 0.2826373 -0.45912611 5
11.727476 0.54041338 -0.4616164 5
11.722195 0.79801691 -0.46392548 5
11.714488 1.1221521 -0.46789619 5
11.685229 1.4453882 -0.47120577 5
11.664996 1.7071412 -0.4751074 5
11.726909 1.9245421 -0.21934915 6
11.66414 1.9350324 0.04388484 7
11.705392 1.9333932 0.30483437 8
11.698668 1.9340307 0.56766379 9
11.65721 1.9258872 0.82915699 10
11.603567 1.9425571 1.0859153 11
11.617199 1.9510934 1.6213702 13
11.6225 1.9574611 2.1660061 14
11.8662 1.932743 0.041083604 7
12.649294 1.957426 -0.26391968 6
12.672188 1.9547147 0.029629976 7
12.622503 1.9595578 0.3229464 8
12.665084 1.9416999 0.61960334 9
12.613647 1.9477595 0.91361415 10
12.61849 1.9531116 1.2099581 11
12.606047 1.952809 1.5079058 12
12.666844 1.9699341 1.8231432 13
12.576387 1.9540548 2.4158378 14
12.923027 1.91971 -0.27649766 6
12.867538 1.9381034 0.026996354 7
12.906622 1.9320705 0.32854518 8
12.996715 1.9240017 0.63732457 9
12.807466 1.9157898 0.93018758 10
12.872165 1.934673 1.2405761 11
12.906653 1.9452533 1.5549105 12
12.882077 1.9425157 1.8634173 13
12.905965 1.9535825 2.5025864 14
13.139561 1.9354688 0.023179572 7
13.07836 1.913081 0.95408916 10
13.156745 1.9345938 1.2754886 11
13.156169 1.9373412 1.5939528 12
13.144462 1.9376632 1.9137702 13
13.649646 1.9123238 -0.3113732 6
13.589873 1.9332072 0.016831726 7
13.549784 1.9260163 0.34129608 8
13.512965 1.9213178 0.66519183 9
13.517071 1.9086422 0.99286908 10
13.613491 1.9332284 1.3315991 11
13.610738 1.9356573 1.6656122 12
13.596295 1.9356711 2.0008907 13
13.830074 1.9314536 0.01344148 7
13.794792 1.925765 0.34616414 8
13.757631 1.9212579 0.67843038 9
13.75628 1.9068348 1.0140594 10
13.849515 1.9303746 1.3605961 11
13.848047 1.9331473 1.7030393 12
13.832173 1.9330148 2.0463932 13
14.234378 -0.60493106 2.8172319 14
14.560056 1.9139135 -0.35538775 6
14.555868 -0.61629349 1.79787 12
14.544204 -0.61266756 2.1613891 13
14.856666 1.968631 -0.0013678699 7
14.838368 1.966702 0.36694661 8
14.861365 1.9175798 0.73828065 9
14.83412 1.969174 0.73713201 9
14.788536 1.9452286 1.106312 10
14.980102 -0.62016088 -0.36043721 6
14.995973 -0.2933647 -0.3614417 6
15.017762 -0.021966072 -0.36307007 6
15.043501 0.27564728 -0.36537555 6
15.068239 0.59385216 -0.36818492 6
15.097166 0.87806225 -0.37144229 6
15.108863 1.1560074 -0.37419325 6
15.120452 1.4420277 -0.3773616 6
15.130934 1.7306681 -0.38093635 6
14.955281 1.9296409 -0.002531183 7
14.885318 1.9185858 0.3678776 8
14.916725 1.9361956 1.492409 11
14.961097 1.9476475 1.8797189 12
14.972227 1.9530737 2.2679639 13
14.897552 1.9462459 3.0295792 14
16.050678 -0.62443435 -0.0081675891 7
16.032976 -0.59853333 0.80240959 9
16.023363 -0.59472585 1.2116234 10
15.920986 -0.62424999 1.6073295 11
16.014555 -0.61608875 2.0326376 12
16.116934 -0.6268931 0.39772403 8
16.961542 1.9818009 0.85301441 9
16.889816 1.9745342 1.2941177 10
16.888374 1.9357731 1.7367281 11
16.920849 1.9855499 1.741542 11
16.938002 1.947319 2.1941464 12
16.955612 1.994951 2.1979616 12
16.782 1.9273005 2.6193686 13
17.051123 1.9013791 0.41117966 8
17.034153 1.9027944 0.85659504 9
17.170719 1.8815097 1.3183192 10
17.338318 1.9122289 1.7922763 11
17.346741 1.9175174 2.2587233 12
17.362864 1.9239529 2.7326083 13
19.826321 -0.64449465 -0.062872656 7
21.652464 1.9998488 -0.098963201 7
21.664883 2.3073125 -0.10071926 7
21.674887 1.9435254 0.50397509 8
21.679224 2.1581776 0.50385582 8
21.67894 2.3421147 0.50370103 8
21.6758 1.9183223 1.1108146 9
21.664051 2.1615911 1.110922 9
21.666548 2.3764911 1.1118498 9
21.633923 1.8885735 1.7190269 10
21.633858 2.1478841 1.7208664 10
21.62047 1.9867632 2.3267047 11
21.624411 2.170336 2.32933 11
21.624859 2.3539083 2.3317008 11
21.61762 1.9917299 2.9429722 12
21.60866 2.1737084 2.944432 12
21.607021 2.3568554 2.9473178 12
21.766748 1.8616931 0.50591522 8
23.396135 1.8642876 -0.12345979 7
26.870176 -0.65784144 2.1923261 10
26.941948 -0.67296195 0.61656386 8
26.929249 -0.59384114 0.61603326 8
26.912474 -0.66559821 1.402568 9
26.899782 -0.586577 1.4015145 9
27.743439 -0.41220403 0.63188267 8
27.732824 -0.40526247 1.4467195 9
27.682659 -0.43829641 2.2646594 10
-13.898232 2.7275262 0.41265345 8.1754999
-13.864548 3.704134 0.41181141 8.1739998
-13.837543 4.3622146 0.41167241 8.1730003
-13.86468 3.7026262 1.0610063 9.1739998
-13.852261 4.3640718 1.0656055 9.1730003
-13.065695 3.5399883 1.6473471 10.174
-9.2020998 1.3076146 1.7809566 11.177
-9.1955614 1.6655568 1.7837304 11.17625
-9.1020622 2.0121071 1.7770729 11.1755
-8.6402988 4.092567 1.2955906 10.171
-8.4125824 4.0227046 0.80458897 9.1709995
-8.3760595 2.47539 1.6995488 11.17425
-8.2833452 2.9167573 1.6983513 11.17325
-6.8515372 -0.29065812 3.1143336 15.0005
-5.2074242 0.92750198 2.3367875 14.177
-4.4941525 0.085457586 1.8473585 13.1795
-4.4811482 0.62593991 1.8470142 13.17775
-4.5649791 -0.22718358 2.2934721 14.0005
-4.7496037 0.24456033 2.2259278 14.179
-4.7121558 0.56151921 2.219363 14.178
-4.3295584 -0.21932915 1.8177471 13.0005
-4.3663864 1.00286 1.8303726 13.1765
-4.2923965 1.300354 1.8229282 13.1755
-4.1304669 1.6574075 1.8026848 13.17425
-3.8051074 0.79553241 1.7203085 13.177
-4.0106583 0.22696233 1.7549495 13.179
-3.7874339 1.0805136 2.0194218 14.176
-3.723032 1.3599054 2.0136275 14.175
-3.7203033 2.125102 1.8954029 13.6725
-3.3259461 0.20970558 2.1824651 14.179
-2.9053984 -0.43104476 0.38973987 8.5015001
-2.8585815 -0.43051097 1.1514611 11.5015
-3.153089 2.1191618 1.6396989 13.172
-2.8459511 -0.43058708 1.7982688 14.0015
-3.092196 0.85892504 2.1300507 14.1765
-2.9278491 1.2296834 1.8306303 14.175
-3.1581457 2.1191564 2.2068822 14.172
-2.7003016 -0.41886044 0.75628811 10.0015
-2.8286593 2.300674 1.3192114 12.171
-2.8053255 -0.42771205 1.5292075 13.0015
-2.8186698 2.296782 1.5877001 13.171
-2.6972404 0.56548041 2.0200233 14.1775
-2.5839937 1.4475496 2.0199893 14.174
-2.6151643 1.6441852 2.0385821 14.17325
-2.1683424 2.0900013 1.9546105 14.171
-2.0078297 2.0218649 0.24778275 8.1709995
-1.4984176 -0.44706595 0.44874766 9.0019999
-1.3056159 -0.43143073 0.24105974 8.0019999
-1.4121815 -0.4411445 0.75051141 10.502
-1.4458971 -0.44476256 1.0615389 12.002
-1.5021951 -0.44993573 1.6015437 13.502
-1.035792 2.141067 0.33622822 8.6689997
-0.98585296 2.1410058 0.83824033 11.169
-1.0484781 2.1639812 1.0524372 12.169
-1.0234873 2.1525223 1.5702057 13.669
-0.67122465 2.1338744 0.29483619 8.501667
-0.71456456 2.1364009 0.80805308 11.1685
-0.76837587 2.1580832 1.0119041 12.1685
-0.7544924 2.1507418 1.5089427 13.6685
-0.25575304 2.1210172 0.2250798 8.1674995
-0.033159245 2.1139095 0.22224276 8.1669998
0.86093616 -2.1394238 0.51366842 10.0155
0.84433371 -1.9828936 0.22450918 8.0144997
0.85080898 -2.1466196 0.73217201 11.5155
1.1936772 -1.641251 0.84586948 12.0135
0.93700504 -0.49703997 0.81933665 12.004001
0.96662802 -0.49285802 1.0622065 14.004
1.3711684 -1.7732683 0.30718157 8.7651243
1.5454892 -1.3496622 0.30415362 8.8876247
1.5655944 -1.1496964 0.36446336 9.5109997
1.2338386 -1.7562368 0.85019112 12.0145
1.4574336 -1.4004961 0.71693271 11.467227
1.4371337 -1.2009296 0.76602119 12.011
1.4622101 -1.6648129 1.0460507 14.01475
1.3986259 -1.4021332 1.0278833 14.0125
1.6206173 -1.6077017 0.21076617 8.0150003
1.8722938 2.0888224 0.31249774 9.1599998
1.626722 -1.6706982 0.89295608 13.0155
1.6571695 -1.3388578 0.8488099 13.013
1.637695 -1.1405116 0.83281082 13.01125
1.9637245 -0.51714003 0.71598065 13.006
1.8606656 2.0950897 0.77096653 12.16
1.8690799 2.0869007 1.0021344 14.16
2.157289 -0.65001422 0.33763269 9.4080992
2.1798139 2.0813651 0.384543 9.9582005
2.2376976 -0.57558185 0.65825623 13.0075
2.2067225 2.0828924 0.79035455 12.824666
2.1262109 2.0810769 0.95005518 14.1585
2.5830595 2.0724084 0.30460143 9.064455
2.5273528 2.0763071 0.74333167 12.822417
2.8482666 -0.55359614 0.35430974 10.121112
2.9622233 2.0532405 0.34934795 9.6521673
2.8559208 -0.5815773 0.58457536 14.0105
2.8530629 2.0653794 0.7491011 13.403125
3.536505 1.3137602 0.34919119 10.651375
3.7769148 -0.53571492 0.2870138 11.06772
3.6587267 1.4060434 0.34524283 10.48189
3.7295487 1.8985987 0.25394505 9.0015001
3.733182 2.0448332 0.28063485 9.1436434
3.6870143 1.4404645 0.56377852 14.147834
3.7059958 1.6505924 0.61193234 14.146
3.7479501 2.0785923 0.62115586 12.921056
4.2215819 -0.52152675 0.24134432 10.865358
4.2868319 0.71651012 0.26428777 11.191211
4.5868735 -0.55790311 0.24711077 10.720634
4.4426436 0.71999323 0.23888928 10.079737
4.5033188 0.85640502 0.29642665 11.797333
4.6734581 1.9646704 0.4247562 11.1305
4.9847288 -0.56645972 0.27819163 10.698869
5.0229697 1.9775586 0.32313845 9.5632191
4.9685192 1.9715316 0.63376546 13.376375
5.3602567 -0.56786549 0.3466655 11.292812
5.2967458 1.975341 0.30439451 9.2889166
5.3800502 1.9714071 0.70358419 13.787833
5.7904706 -0.61334479 0.37639365 10.759341
5.7902632 1.9780631 0.33110839 9.3835659
5.9310989 2.0419478 0.55345458 11.116
5.9380903 -0.66161019 0.61018366 14.077832
5.6990891 1.9654633 0.68900901 13.117667
5.9300809 2.0420127 0.64353979 12.116
6.1038246 -0.62584358 0.3835206 10.246041
6.1577001 1.993834 0.31150612 9.1137733
6.1146421 -0.64489186 0.61536753 13.523611
6.168138 2.0351546 0.68781155 12.256785
6.4775362 1.977164 0.36330631 9.2540722
6.5182281 1.9827094 0.77747399 12.711
6.9616427 1.9721491 0.21552654 8.1082497
7.3326497 2.019738 0.40754509 9.6067505
7.3578219 2.0392146 0.80874085 11.7735
7.393218 2.0376284 1.0621331 13.678072
7.9049807 -0.6309706 0.79645789 11.5845
7.8987975 -0.62783939 1.0521686 13.5845
8.2029457 2.0232561 0.4625279 9.6035004
8.2691498 2.0439932 0.69650877 11.1035
8.2618647 2.0467455 1.3223754 14.1035
8.3300257 2.0798326 1.1009357 12.6035
8.6249056 1.9559107 0.81459242 11.602
8.4891233 -0.58885109 1.2725812 14.0855
8.6314726 1.963133 1.2334988 13.102
8.6298838 1.9641054 1.4024626 14.102
9.0104809 -0.62218279 0.74355793 11.085751
8.9361353 1.9545969 0.85559249 11.60125
8.9385815 1.9600618 1.2990252 13.10125
8.936986 1.9611404 1.4782259 14.10125
9.4200716 1.9545037 0.82476628 11.10025
9.4177551 1.9554898 1.0152341 12.10025
9.4154882 1.9593363 1.5002453 13.60025
9.9153681 1.9812988 0.88430244 11.0995
9.9294128 1.9882873 1.094431 12.0995
9.9590034 2.002867 1.5249323 13.0995
10.17605 1.9767951 0.3828114 8.599
10.006379 2.0217729 1.7534621 14.0995
10.528234 1.9769233 0.39569432 8.5985003
10.362727 2.0230587 0.93907797 11.099
10.607446 2.0248079 1.12142 11.765334
10.552915 2.0298214 1.4240974 13.09875
10.552607 2.034152 1.8944004 14.09875
11.144112 -0.61372298 0.41655159 8.5869999
10.908417 1.9731977 0.40949973 8.5979996
11.088692 -0.62524366 1.1228673 11.587
11.07714 -0.62126148 1.4808289 13.087
11.013992 -0.61138409 1.9511271 14.087
11.376801 1.9810307 0.4272716 8.5974998
11.254063 -0.62112576 0.78266996 10.087
11.462035 1.9868395 1.2001978 11.5975
11.440217 1.9844218 1.5894849 13.0975
11.443801 1.9878626 1.8552153 14.0975
11.756311 1.930584 1.2392025 11.597
11.758258 1.9348431 1.6478165 13.097
11.719452 1.9297864 2.189837 14.097
12.297838 1.9253742 1.4589518 12.0965
12.078043 -0.57614636 2.2367511 14.0875
12.523597 -0.61662102 1.6184362 12.5875
12.668068 2.0172367 1.8257122 13.0965
12.68254 0.39459834 2.3927097 14.091
12.655972 0.97526306 2.3958392 14.093
12.394445 1.9567139 2.3685272 14.0965
12.875703 -0.62828189 0.33366489 8.0874996
12.898936 1.9318366 0.32877228 8.0959997
13.000573 -0.63262463 0.790411 9.5874996
12.867912 1.9276563 0.63079119 9.0959997
12.821753 -0.61545706 1.2201492 11.0875
13.018877 1.9371841 1.2590389 11.096
13.014121 1.938971 1.5720451 12.096
13.008036 1.9404795 1.8880148 13.096
13.044128 1.9542837 2.5394993 14.096
13.488666 0.27003691 2.6097171 14.0905
13.498711 0.59098536 2.6151202 14.0915
13.790549 1.9490896 2.7365749 14.0955
14.266613 -0.056943722 2.460325 14.0895
14.182944 0.80277383 2.4448299 14.092
14.105015 1.1387511 2.433356 14.093
14.71907 1.9452381 2.219228 13.095
14.695792 1.9476193 2.9766898 14.095
15.09777 -0.63497365 1.5058661 11.088
14.881156 1.972011 1.8682973 12.095
15.066524 1.057971 2.2661629 13.0925
14.838405 -0.60697645 2.9818301 14.088
15.525322 1.914966 0.38135633 8.0944996
15.425334 0.12673602 2.7305436 14.09
15.795206 -0.64951253 0.39303505 8.0880003
15.985057 -0.65402442 1.2103792 10.088
15.747583 1.9320538 2.4187782 13.0945
15.805437 -0.3685143 2.8226526 14.08875
15.799998 1.7401048 2.8419511 14.094
15.763618 1.9384123 2.8400514 14.0945
16.081955 1.9845291 2.0594461 12.0945
16.172653 0.02745566 2.47842 13.08975
16.171555 0.33628255 2.4778571 13.0905
16.168209 0.75068313 2.4793158 13.0915
16.15382 0.95635682 2.4785814 13.092
16.777386 1.9058552 0.40655655 8.0939999
16.894003 1.9275104 0.84993404 9.0939999
17.07128 1.9194548 1.7601132 11.094
17.085844 1.9256361 2.2181978 12.094
17.069544 1.9272166 2.6763902 13.094
17.30246 -0.52878141 3.6456633 15.0885
17.864273 1.806525 2.8288789 13.0935
19.069813 0.024641069 2.5224707 12.08975
19.082727 0.40970901 2.5239525 12.0905
19.099075 0.7988174 2.5277755 12.091249
19.111355 1.186834 2.5323706 12.092
19.183064 -0.61750203 3.0774431 13.0885
20.435503 -0.68087608 2.176476 11.0885
21.15451 -0.67109227 0.50203037 8.0885
21.046391 -0.41145703 2.8436821 12.089
21.57531 -0.42016327 3.5473549 13.089
22.015417 -0.69647384 1.7562715 10.0885
22.77247 4.439527 2.5151052 11.0965
23.266462 1.8881093 0.53774261 8.0924997
23.236301 1.8908719 1.1980855 9.0924997
23.96199 0.53284264 2.6146102 11.0905
23.656626 1.8797911 2.5817735 11.0925
24.617485 -0.15669602 2.6986423 11.0895
24.584482 0.90577406 2.6931503 11.091
24.541567 1.2532779 2.6888094 11.0915
26.440636 1.820483 1.3745242 9.092
26.768991 1.8405052 0.60883385 8.092
27.894835 1.8748597 3.112581 11.092
28.11729 -0.60199529 3.1410453 11.089
28.065399 0.22646227 3.1308048 11.09
31.794609 1.7762012 1.669862 9.0915003
32.105774 1.7829678 0.71727616 8.0915003
35.803272 -0.1600059 3.0020363 10.0895
35.831692 0.38885745 3.0028961 10.09
37.779861 1.5647225 0.83307809 8.0909996
37.705662 1.571202 1.9963942 9.0909996
38.246094 -0.77523619 2.0327861 9.0889997
38.254402 -0.76559579 3.2268457 10.089
38.294487 1.0099102 3.2249315 10.0905
41.883785 -0.21695809 0.92193705 8.0895004
41.814442 -0.20562188 2.2277515 9.0895004
59.478554 1.594965 1.2741336 8.0904999
59.42062 1.6095285 3.196456 9.0904999
72.28434 0.79497725 3.9096179 9.0900002
87.240128 0.94114548 1.8407415 8.0900002
-8.8492241 1.7854759 0.30399662 8
-8.7673368 1.0510074 -0.68211889 6
-8.8187828 1.1064571 -0.19120657 7
-8.6659937 2.0355465 -0.18871294 7
-8.701519 0.97325844 0.30062276 8
-8.7029886 0.97025347 0.79239428 9
-8.7466764 2.1687574 0.8019653 9
-8.7085428 1.0169032 1.288952 10
-8.7429085 2.2151482 1.3042768 10
-8.50776 0.30524087 -0.66539323 6
-8.4538279 0.59181148 -0.66250914 6
-8.4336681 0.59526843 -0.18163373 7
-8.5316172 0.28295529 0.29792291 8
-8.5330048 0.57216096 0.298255 8
-8.6244135 0.57284284 0.78747922 9
-7.3405442 1.7193701 1.634694 11
-3.6635184 2.1142416 0.25247729 8
-3.6989851 2.1200175 0.57709056 9
-3.728024 2.1242776 0.90635502 10
-3.5768335 2.110502 -0.38526219 6
-3.5213253 2.0983641 -0.06520509 7
-3.5938909 2.1221044 1.2177234 11
-3.3811371 2.0961456 -0.69018817 5
-2.8786907 2.1112616 0.54100078 9
-1.7217041 2.0767376 1.0072515 11
-1.8032694 2.0983257 1.2814269 12
-1.8277429 2.1033006 1.55329 13
-1.73487 2.0990534 2.0718217 14
-1.539052 2.0699654 -0.52108663 5
-1.5764593 2.08167 -0.27006349 6
-1.4956717 2.0967512 0.23109685 8
-1.5876101 2.0960305 0.4846682 9
-1.5030347 2.1474087 0.73429674 10
-1.4559098 2.1776314 1.4910913 13
-1.3566936 2.1503255 0.96966273 11
-1.4297101 2.1714153 1.2309268 12
-1.1751937 2.1492054 0.22833319 8
-0.66198593 2.1319089 1.8096402 14
-0.1692955 2.0482562 -0.81407732 3
0.084181316 2.0612774 -0.574359 4
0.1241891 2.0461655 -0.37107942 5
0.10106704 2.0554714 -0.17508028 6
0.1310212 2.0442519 0.021231504 7
0.11812203 2.0721869 1.0055355 12
0.15302503 2.0550041 1.4015126 13
0.1143404 2.0683334 1.6149948 14
0.23588796 2.0547695 0.21446639 8
0.17752331 2.0552142 0.40888649 9
0.23267025 2.0525885 0.60017383 10
0.17281835 2.052532 0.79938489 11
0.56992733 2.0283396 -0.69871819 3
1.0797731 2.0101681 -0.78883529 2
1.4593004 2.1166849 0.20418684 8
1.6040729 2.0295062 -0.69561267 2
2.2993896 -0.52906173 -0.35775054 3
2.2828453 -0.5115847 -0.19444269 4.5
2.2817273 -0.50780833 0.023799302 6.5
2.2836356 -0.51296264 0.23956501 8.5
2.2219975 -0.50161833 0.40767458 10
2.2345343 -0.50223476 0.85585785 13
2.241194 -0.5016638 0.96866822 14
2.757767 2.0083966 -0.73669791 0
2.5798941 1.9793193 -0.64554608 1
2.8753893 -0.52825093 -0.53929669 0
2.8877263 -0.52569628 -0.44401243 1
2.8868289 -0.53149313 -0.17282152 4
2.9056206 2.0774701 0.24842785 8.5
2.8173161 2.0793881 0.53588134 11
3.167109 1.9865611 0.2412688 8.5
3.1628954 1.9881934 0.39588365 10
3.1207395 2.0087979 0.60972565 11
3.1332092 1.992759 0.92757362 14
3.0035081 2.0808129 0.79848468 12.5
3.2502573 1.9881735 -0.62846226 0
3.3916245 1.9898422 -0.4971565 1
3.534852 2.1083608 -0.54318708 0.5
3.5289176 1.9859686 -0.32861453 2.5
3.4753664 2.0152543 -0.28992429 3
3.4655735 2.2477982 -0.42230198 2
3.5361342 1.9855829 -0.18468015 4
3.4851871 2.0841291 -0.10031872 5
3.4591596 2.2400117 -0.21453008 4
3.5651848 2.0304039 0.095801912 7
3.5058117 1.9759718 0.18824086 8
3.5509696 2.0765605 0.62131476 11.5
3.5064681 2.0839562 0.82629597 13.5
3.5955656 1.9964194 -0.36825302 2
3.7068694 -0.53573132 -0.16232873 2.5
3.6824081 -0.53211349 0.080460466 6.5
3.5736444 1.9792678 0.0050500035 6
3.6932571 -0.4644261 0.23094977 9
3.6216712 2.0388372 0.23472743 8.5
3.6872451 -0.53132027 0.35438016 10
3.6172454 2.0357978 0.46688107 10
3.7262971 2.065366 0.83633214 14
3.944901 -0.53824669 -0.14846727 2
3.890831 -0.5376507 0.035266154 5.5
3.8995802 2.0132158 0.10205385 7
3.8769636 -0.53401321 0.26077572 9
3.8962207 2.023411 0.23023418 8.5
3.8966334 2.0180748 0.44569865 10
3.7762299 2.0682642 0.59626007 11.5
3.982368 2.0673902 0.5322054 11
3.9749691 2.0679135 0.66539681 12.5
4.063241 2.0634303 0.78580803 14
4.3116379 -0.50785422 0.062435944 5.4285712
4.2927809 1.9707638 0.071000807 6.5
4.3090682 -0.49637434 0.24588372 9
4.2814322 1.9849155 0.22454895 8.5
4.3246355 1.9884984 0.45644966 10.5
4.1927767 2.0650952 0.51571184 11
4.1891603 2.069438 0.60063201 12
4.4819298 1.977788 0.00058488938 5.5
4.3769145 1.9799055 0.64798069 13
4.7045856 1.9714743 -0.20819876 2.5
4.5984654 1.976091 0.66554683 13.5
4.7808747 1.985232 -0.097421966 4
4.8011584 1.9748894 0.04598771 6
4.798562 1.984262 0.22116765 8.5
4.7814894 1.9825695 0.39865422 10
5.5640106 1.936191 -0.31547865 0.5
5.4400702 0.94703609 0.17013577 8
5.7081299 1.9336482 -0.28305715 1
5.7225413 1.9467542 -0.18173926 2.5
5.6397424 1.9483429 0.056823131 6
5.6449156 1.958423 0.25761321 9
5.6987009 1.9675516 0.46509013 11
5.7300954 1.9761761 0.64450413 13.5
6.17168 -0.56924498 0.20713878 8
6.2753191 -0.57316905 0.17642045 8
6.2197671 1.9971316 0.19781123 8
6.2235503 1.9940405 0.42077163 10
6.5007038 1.969872 -0.33189598 1.2
6.5061207 1.97578 -0.18915956 3
6.5516305 -0.58718288 0.0039179372 4
6.5194483 -0.57908434 0.087068677 5.8000002
6.4906039 1.9645014 0.047023524 6
6.4748321 -0.57989812 0.26716429 9
6.4524608 1.9628323 0.23843305 8.5
6.4702301 1.9353631 0.42944488 10
6.4656963 2.0605023 0.52400541 11
6.4573035 2.0474303 0.64409691 12.5
6.591548 1.9572313 -0.4392724 0
6.6631532 1.9615901 -0.1175365 4
6.7154217 -0.58353293 0.23599865 9
6.6958838 -0.58318198 0.18580757 8
6.6012573 1.9650301 0.52249736 11
6.6410036 1.9615971 0.64993995 12.5
6.9361134 -0.58959079 -0.12371162 2.5
6.8618803 1.9527836 0.081952691 6.5
6.8205423 1.9380795 0.24754795 8.5
6.8128691 1.9256302 0.49576858 10.5
6.8189254 1.9288281 0.62383503 12
6.9411283 2.0335996 0.74693948 13
6.9317713 2.0375409 0.83828902 14
7.1206045 1.9391443 -0.51714247 0
7.0432158 1.9493978 -0.36674935 1.5
7.091609 -0.5899384 -0.13518874 2.6666667
7.0446115 1.9556857 -0.14259057 4
7.1615472 1.9524496 0.077380992 6.5
7.1171021 2.0250945 0.67701232 12
7.2665677 1.9460769 -0.44519189 1
7.2057915 1.9531987 -0.29459593 2.5
7.2011914 1.9580288 -0.15431951 4
7.222857 -0.59004056 0.39823833 10
7.2380829 2.0143015 0.40411407 10
7.4641304 1.9500393 -0.52870786 0.5
7.5048232 1.953789 -0.3808119 2
7.4808135 1.9510179 -0.076683871 5
7.5208654 2.0173302 0.32159746 9
7.7390008 -0.58766121 -0.47182414 0
7.6495571 1.9516255 -0.34790674 2.5
7.7357898 1.9540291 0.11913344 7
7.7168889 -0.5918535 0.20964654 8
7.6840096 1.9527165 0.22279409 8
7.9511714 1.9735379 -0.56289864 1
7.8152232 -0.59452629 -0.35505706 1.5
7.7986355 -0.59411359 -0.13193329 4
7.8039994 -0.5912236 0.083411962 6.5
7.8269801 -0.61096239 0.29923424 9
7.8756008 -0.59468794 0.48003501 10
7.8818598 -0.59426683 0.66264141 12
7.8503275 -0.58775395 0.83899999 14
7.8781219 2.0304465 1.0215918 14
8.2326193 -0.58898628 -0.3342596 2.5
8.2415934 -0.59271449 -0.131211 4.5
8.2038488 -0.59167767 0.072421268 6.5
8.2152796 -0.5918352 0.27148071 8.5
8.2204037 2.0180802 0.35489786 9
8.1970329 -0.58990115 0.52059323 10
8.2101564 -0.59207231 0.67576438 11.5
8.189539 -0.58693922 0.87784415 13.5
8.5145044 2.018961 0.36971802 9
8.510499 1.9413013 0.49568105 10
8.4428673 2.073849 0.49667266 10
8.4341688 2.0634878 0.75335169 11
8.4867306 2.0843308 0.89584059 12
8.5059357 1.9596503 1.0852063 13.5
8.4126968 2.0676041 1.0800251 13.5
8.6068459 1.9772331 -0.54756576 2
8.8878374 1.9508147 -0.44835824 3
9.0917597 1.946323 -0.32767174 4
9.0066605 1.9010668 -0.031016452 6
9.0837631 -0.59225655 0.37208539 9
9.0641689 -0.58870316 0.5012638 10
9.0599995 -0.58700234 0.6306017 11
9.521452 1.9364626 -0.53238767 3
9.4305897 1.9467107 -0.20567513 5
9.6757298 1.9438614 -0.30604628 4.5
9.7610559 1.9295887 0.60105127 10
9.7422972 1.9454322 1.2783928 13
9.7391901 1.9453027 1.4510156 14
9.7777882 1.9356827 0.43468416 9
9.8024521 1.9498758 0.77386045 11
9.7930489 1.9469949 0.94309378 12
9.9894848 1.9422951 -0.24627572 5
9.9909525 1.9413267 -0.071644306 6
10.004859 1.9465015 0.10061827 7
10.029782 1.9486541 0.27401158 8
10.676138 1.9105231 -0.49350661 4
10.640143 0.91181821 -0.27274081 5
10.700909 0.86210376 0.097492769 7
10.742355 0.74432534 0.28388616 8
10.69691 0.96746373 0.2836611 8
10.741516 0.64995611 0.47101498 9
10.670467 0.66111517 0.65366817 10
10.757292 1.0385833 0.66735238 10
10.710627 1.9973091 0.68699169 10
10.671775 0.64432728 0.83967686 11
10.714291 1.0710272 0.85386914 11
10.648657 0.8300842 1.028834 12
10.690651 0.81853402 1.2278382 13
10.792013 0.70513427 -0.28239018 5
10.833512 0.67077339 -0.093249492 6
10.856455 1.0763468 0.48170465 9
10.807822 2.0143895 0.89830786 11
10.973937 2.0355613 1.5587755 13
11.018016 2.0306411 1.7862799 14
11.265478 2.0171623 0.51910424 9
11.249267 2.0399451 1.1735764 12
11.395382 2.0160675 0.74881691 10
11.45135 2.0373318 0.97821873 11
11.50455 2.034219 1.4446825 13
11.480179 1.9582872 1.9003021 14
11.755727 1.9257393 -0.14610562 6
11.757358 1.9252237 0.083945684 7
11.736836 1.9100202 0.77674484 10
11.706986 1.9306877 1.4774021 13
11.80223 1.9266846 0.31495529 8
11.835592 1.938074 0.5500524 9
11.80658 1.9335076 1.0182598 11
11.83009 1.9419848 1.2602693 12
12.644789 1.9190371 -0.18459824 6
12.630872 1.9412786 0.075225934 7
13.059911 1.9332758 1.456233 12
13.053235 1.934613 1.7392629 13
13.371404 1.929101 0.067820758 7
13.339107 1.9100037 0.92329103 10
13.397116 1.9206122 0.35252106 8
13.513233 1.9199075 0.64606494 9
13.922894 1.9284406 1.5949821 12
13.906525 1.9264523 1.9062113 13
15.672076 -0.15276706 -0.31146842 6
-8.7616901 1.1250886 -0.68203348 6
-8.7619505 1.3241321 -0.68282682 6
-8.7578497 1.6231129 -0.68400544 6
-8.7573376 1.8233567 -0.68509591 6
-8.7417698 2.9062762 -0.69271535 6
-8.8149004 1.3058331 -0.19128615 7
-8.8133917 1.5809847 -0.1915631 7
-8.7913523 1.8042133 -0.19134545 7
-8.7389145 2.3488567 -0.19110839 7
-8.7862492 2.9168282 -0.19362675 7
-8.78092 2.967284 -0.19363369 7
-8.8041553 1.0797695 0.30188596 8
-8.8293772 1.3064069 0.30261552 8
-8.7981586 1.5534357 0.30286524 8
-8.7917252 2.0274987 0.30411157 8
-8.7699203 2.2010453 0.30444485 8
-8.7865582 2.8900495 0.30720368 8
-8.7792368 2.9915819 0.30756471 8
