# .PCD v0.7 - Point Cloud Data file format
VERSION 0.7
FIELDS x y z intensity
SIZE 4 4 4 4
TYPE F F F F
COUNT 1 1 1 1
WIDTH 1185
HEIGHT 1
VIEWPOINT 0 0 0 1 0 0 0
POINTS 1185
DATA ascii
-4.6453199 2.2310629 -5.2477865 14.51475
-3.9683888 2.2691817 -5.2495184 15.01325
-3.6954319 2.2822423 -5.2878146 15.012125
-3.3585961 2.286212 -5.1152053 15.01075
-3.0408471 2.2406466 -5.2071066 14.008
-0.46824011 2.1181493 -5.3975348 13.04325
-0.18260293 2.1303949 -5.3782825 13.033916
0.10870831 2.1601775 -5.3764071 13.032416
0.49810207 2.1710658 -5.3605418 13.033438
0.7736147 2.1721268 -5.3600631 13.0349
1.0932684 2.1631398 -5.2524266 13
4.904644 2.2097862 -5.2538013 10.121
-1.4823737 2.4344857 -5.3676791 14.044
-0.44384524 2.4944901 -5.2130642 14.0205
-0.090389699 2.4879949 -5.1151781 14.0195
1.1029334 2.5583806 -5.2778683 14.018333
-1.5002646 2.8097663 -5.3750672 15.044
-18.060425 -0.47355968 -4.8717995 8.02075
-15.384491 -0.4290784 -5.0054331 8.0115004
-14.335126 -0.43120736 -5.0547571 8.0109997
-4.5383034 0.20535336 -5.073133 8.0190001
-2.1723948 0.24268313 -5.0727358 8.033
-1.417224 0.27422881 -5.0968037 8.0039997
1.1278946 0.17472175 -4.9272923 8.5
1.5919387 0.087957785 -4.9301825 8.1330004
-1.4735084 0.46079242 -5.0960984 10
1.140537 0.4059099 -4.9742332 8.287879
-10.12913 0.86373734 -5.0090423 10.02925
-1.4642222 0.74312681 -4.9992676 10.880438
1.12503 0.7347613 -4.9652047 9.590909
1.5726452 0.8178066 -4.9807138 9.1330004
-18.618488 1.0901365 -5.0557036 11.023
-18.534634 0.95855141 -5.0485735 11.044875
-1.4252341 1.0125747 -5.05267 12.504
1.1162124 1.0583153 -4.9647326 10.858974
-18.440449 1.3990065 -5.0686431 12.02075
-18.01543 1.4258062 -5.0197325 12.068
-10.181933 1.2748792 -4.9155626 11.0295
-1.4649161 1.3776013 -5.0253596 13.340084
1.104862 1.3849206 -4.9364395 12.106637
-17.848642 1.5378915 -4.8740578 12.02125
-16.865562 1.5745996 -5.067121 12.0195
-16.032143 1.5103834 -4.9851885 12.01325
-15.662055 1.5218835 -5.0935292 12.01225
-15.320385 1.5251729 -4.864706 12.0115
-15.210911 1.6352073 -4.8712173 13.015
-14.966119 1.5161772 -4.9607248 12.01075
-12.749607 1.5467098 -4.8970575 12.008
-1.4908355 1.6741552 -4.9346819 13.672501
0.89336252 1.7949524 -5.0348454 12
1.1224419 1.7144402 -4.9288712 12.821382
1.2347364 1.6156509 -4.9188085 14.17275
-12.45535 1.90768 -4.9539056 12.032125
-9.5245209 2.0587275 -5.0044351 13.009167
-9.0543795 2.0178583 -4.8166242 14.0515
-7.0521522 2.0906603 -5.0380321 14.0485
-1.4730932 1.9890896 -4.9399238 14.351666
1.1348255 1.9850291 -4.8451452 14.920334
-7.9565029 2.1347661 -4.9948792 14.033499
-6.7079468 2.1286497 -4.9275751 14.031875
-6.3995466 2.187218 -4.9648867 14.774313
-6.1341577 2.1770566 -4.9837127 14.697166
-5.9383607 2.1593585 -5.0672703 14.53325
-5.1532907 2.1290684 -4.9463525 14.045
-4.8897591 2.1888251 -4.8821464 14.039
-4.6973362 2.1797652 -4.9268265 14.0395
-4.2803297 2.2335184 -5.0710793 14.012
-4.01577 2.2110646 -4.9272542 14.025749
-3.5662019 2.2835457 -5.0422254 15.0115
-2.8244495 2.2138391 -4.9977102 14.508375
-1.5109998 2.3878093 -5.0931807 15.004
0.8564477 2.1086092 -4.8056259 13
1.0889949 2.1271982 -4.9770455 13
1.3497175 2.313333 -5.0070753 14.1745
5.150723 2.3504212 -4.9294758 10.12
-0.35997307 2.4005983 -5.0614247 14.042
1.0792054 2.515157 -5.070653 14
1.3219047 2.5442684 -4.9799824 14.0155
3.6806872 2.6262381 -5.0820408 14.168
-15.918776 -0.42791206 -4.6147556 8.0124998
-8.6802235 0.0019081831 -4.5455112 8.0655003
-4.2185121 0.18896151 -4.69978 8.0334997
-1.4557189 0.25559214 -4.7114363 9.0085001
1.141382 0.16876012 -4.7564583 8.5
-18.185459 0.42172423 -4.6359086 10.021
-5.1699548 0.42813697 -4.7385178 8.9210501
-1.4422647 0.59599072 -4.6892509 11.0085
1.1662825 0.42684355 -4.7755637 8.6346998
1.2015679 0.37424013 -4.78859 8
-10.150885 0.86550248 -4.6710296 10.0145
1.1554103 0.73741865 -4.7695827 9.8999996
-18.547966 0.94940877 -4.6822672 11.0455
-1.4423984 1.0126957 -4.6895833 12.007375
1.1422399 1.0732794 -4.7605586 11.4455
-18.592583 1.3848096 -4.6413398 12.021875
-10.176144 1.2779803 -4.7082767 11.0145
-1.4561268 1.2848461 -4.6117678 14.00875
1.1137044 1.3460966 -4.7484474 12.125
-18.082073 1.5211061 -4.7761712 12.0225
-17.443298 1.5655277 -4.6915479 12.021
-15.746475 1.62761 -4.6316934 13.01675
-15.443094 1.573081 -4.7311106 12.51375
-14.3276 1.527464 -4.5162373 12.0095
-13.908448 1.5360843 -4.5128927 12.0105
-13.668244 1.5346506 -4.6805277 12.009001
-1.6265224 1.6786203 -4.7151871 12.526
-1.4959288 1.5915388 -4.5776882 13.672501
1.1326424 1.6693971 -4.7756386 13.08675
-12.602266 1.9104242 -4.6100636 12.0325
-12.487169 1.877323 -4.7060719 12.54775
-11.291118 1.9911933 -4.7400346 14.053
-9.5694571 2.031991 -4.6959796 13.014375
-8.2987461 2.0401549 -4.7331648 14.05275
-1.5839598 2.0317893 -4.718544 14.023
1.0675865 2.04373 -4.6526999 13.058499
-8.1428385 2.1419232 -4.6139879 14.029916
-8.0296297 2.1405408 -4.7600293 14.028749
-7.7608218 2.1657872 -4.5056529 14.026
-7.3266649 2.1597745 -4.6794686 14.024
-6.6729484 2.1919165 -4.6731911 15.0275
-6.4542766 2.2110882 -4.6780491 15.025375
-4.407588 2.2743852 -4.5125422 14.0335
-3.2165716 2.3111055 -4.7672901 15.01025
-2.8692842 2.235589 -4.6914682 14.508499
-2.6112814 2.2344995 -4.5766978 15.0085
-1.5278418 2.2523556 -4.7837811 15.0045
-1.2371421 2.3413458 -4.5723486 14.023
1.0542785 2.3432939 -4.6910024 14.1755
0.8580842 2.4255717 -4.6316757 14
1.0666449 2.4745858 -4.6745195 14.242999
-18.047672 -0.41996187 -4.291605 8.0454998
-17.684959 -0.4317849 -4.3116164 8.0165005
-3.6482239 0.23075244 -4.4805107 8.0345001
-1.4255079 0.2499865 -4.4196873 8.1261253
1.1470568 0.18228664 -4.3776073 8.666667
-18.164852 0.46321836 -4.4028668 10.045375
-10.15971 0.46944267 -4.3148327 9
-2.2585025 0.57387984 -4.2060618 9
-1.4383649 0.47026297 -4.3540878 9.0318546
1.1450689 0.41969585 -4.3103285 9.0692005
-18.592453 0.88369691 -4.3811793 11.022
-10.165913 0.87781119 -4.3327217 10.008375
-1.5320992 0.68865824 -4.4457874 9.0410004
-1.4331343 0.71684486 -4.4444761 10.287643
1.1368262 0.74738902 -4.326704 11.035867
-18.588398 0.92131293 -4.4138799 11.0225
-1.4528016 1.015516 -4.3719716 11.335048
1.1347898 1.0130194 -4.3945041 12.41975
-18.604176 1.3492006 -4.3820891 12.022
-18.496321 1.4265819 -4.4576888 12.0695
-10.182871 1.2634435 -4.3466759 11
-2.2791502 1.2240492 -4.2058721 11
-1.5045019 1.4977527 -4.2189164 14.007
-1.4672999 1.3820462 -4.374445 12.516375
1.1080979 1.3216361 -4.3190551 12.415143
-16.971378 1.5080081 -4.4360337 12.0205
-16.358492 1.6297135 -4.3348603 13.01875
-16.021196 1.6060908 -4.3280621 13.01775
-14.972574 1.5237199 -4.2302341 12.011
-14.640002 1.6055698 -4.2757578 12.513375
-14.307209 1.6136009 -4.3500748 12.5135
-13.567146 1.6150117 -4.2020626 12.009
-13.386232 1.5670404 -4.2555437 12.009251
-13.191429 1.588403 -4.2401266 12.009
-7.2156954 1.7447219 -4.4891129 13.1735
-2.2767982 1.5499979 -4.2078567 12
-1.5111767 1.5203871 -4.2173538 13.506
-1.4890268 1.6943086 -4.4272671 14.007
-12.636941 1.898103 -4.4848557 12.0335
-9.5778828 2.0142734 -4.3787961 13.00975
-4.842598 1.825206 -4.2145882 13.170499
-2.2913334 2.0815842 -4.211091 14
-1.5320239 1.9336426 -4.3515434 15.00575
0.21892625 1.9705786 -4.4119363 13.04
1.0753695 2.0212743 -4.3915858 13.037833
-8.3019533 2.1393826 -4.2999892 14.030999
-7.9980631 2.1517625 -4.2819514 14.027375
-7.5788603 2.1604567 -4.4139743 14.025001
-6.8157725 2.1882739 -4.4154167 15.028167
-5.9694185 2.2321765 -4.2695265 15.022
-5.4137487 2.2154481 -4.3189716 15.0195
-5.2163243 2.2179279 -4.2312841 15.0185
-4.9223204 2.2263408 -4.3139334 15.017125
-4.6563878 2.2253857 -4.3119454 15.016
-3.7706914 2.2819526 -4.4598742 14.0345
-3.5942035 2.2316072 -4.4355464 14.035
-2.9850495 2.2704449 -4.4190941 15.0095
-1.5201735 2.2194362 -4.3940639 15.0045
0.41130725 2.2929814 -4.2404428 14.040501
0.77132761 2.346458 -4.3885837 14.0395
1.0602305 2.3220603 -4.2568984 14.0375
1.0546117 2.4017055 -4.4663281 14.0365
-18.036451 -0.4004235 -4.0641751 8.0695
-14.231389 -0.35280442 -4.0941658 8.0109997
-14.880515 -0.26337755 -3.9941459 8.0174999
-14.110796 -0.23755118 -4.1632972 8.0155001
-2.1966722 0.246883 -4.1576605 8.2105007
-1.9144663 0.28435662 -4.1675682 8.0374165
-1.6138655 0.29106039 -3.9354 8.0236664
-1.4265152 0.21251304 -4.0210605 8.2532501
1.1224016 0.071703292 -4.0324111 8
-18.125776 0.4837265 -4.1294293 10.0695
-10.17299 0.4423902 -4.1226263 9
-2.1903741 0.42785224 -4.1683941 8.5214996
-1.9250429 0.41521502 -4.1658316 8.4277496
-1.6284492 0.3498289 -4.0670342 8.0402498
-1.44934 0.50184274 -4.0553722 8.9870749
1.1015111 0.44748947 -3.9986537 8.5070553
-10.148556 0.85490113 -4.0515494 10
-2.1884267 0.81698823 -4.1471925 10.942437
-2.0471101 0.79369867 -4.169497 10.38925
-1.6314387 0.60371447 -3.9069185 9
-1.4521859 0.73690826 -4.0798273 10.44911
1.0974026 0.73791623 -4.0207801 10.079111
-18.577135 0.91994739 -4.0082459 11.04675
-2.2344279 1.0781478 -4.1669879 11.337667
-1.4684647 1.0568682 -4.0259247 11.442303
1.0977683 1.0297796 -4.0451651 11.634723
-18.603106 1.3549223 -4.1048474 12.023
-18.57354 1.3877974 -3.9177003 12.0705
-10.184492 1.2619224 -4.0735097 11.010167
-2.2639694 1.3772664 -4.1901932 12.37825
-1.9345224 1.2580009 -4.1232872 11.0255
-1.5854392 1.3477058 -3.956975 12.00275
-1.4720562 1.3090214 -4.0211692 11.601
1.0833838 1.3264873 -4.0484614 12.719786
-16.586952 1.6181804 -4.0832353 13.01925
-15.151631 1.594642 -4.0064173 12.51475
-14.874075 1.6757765 -4.0424514 13.01725
-14.688596 1.5301342 -4.1814594 12.01225
-14.29747 1.6019663 -3.9282951 12.412699
-13.974632 1.6110108 -4.0123062 12.512406
-13.658652 1.6072466 -4.0845528 12.511999
-2.3001797 1.7199038 -4.1894879 13
-1.9885172 1.6497681 -4.1567984 13.0175
-1.5339782 1.6778449 -3.9350817 13.5
-1.4873736 1.5454298 -4.0202079 13.20455
1.0818204 1.6395686 -4.0969496 14
-13.047937 1.8372811 -4.0056953 13.0655
-12.766612 1.8988639 -4.0336609 12.034
-9.6121912 1.9590765 -4.0848885 13
-4.5047574 1.821718 -3.9710112 13.1695
-2.2627108 1.9508628 -4.1984487 13.6825
-1.9703765 1.9150306 -4.1485958 13.0255
-1.527735 1.9198408 -3.9919822 14.4033
-8.0867329 2.1394277 -4.0414753 14.028125
-6.9520521 2.1692686 -4.1708775 15.0295
-6.8865561 2.1923866 -4.1231112 15.0285
-6.1571951 2.2165549 -4.0001278 15.023125
-5.5172243 2.2059107 -4.0702429 15.02
-4.3819938 2.2780716 -4.1824508 15.01475
-3.9587867 2.236536 -3.9626012 15.01325
-2.791404 2.2614822 -4.1371279 14.519751
-2.1331732 2.2377155 -4.0812645 14.026
-1.6132954 2.1729891 -3.9182432 14
-0.44020063 2.1726687 -4.0112123 14.043499
-0.13306101 2.2186642 -4.0131631 14.037167
0.0098008364 2.2220941 -4.059916 14.04125
0.44525614 2.2408743 -3.9942455 14.03925
0.67907292 2.2793202 -4.0525589 14.028749
1.0278478 2.2971838 -3.9920561 14.60675
-1.419212 2.4697244 -3.926625 15.044917
-18.07358 -0.48568258 -3.8767753 8.0220003
-16.864199 -0.40680242 -3.6744471 8.0155001
-16.76405 -0.4203729 -3.801126 8.0155001
-1.6107283 0.29453483 -3.6319818 8
-1.44425 0.2508679 -3.7263649 8.1000004
1.1080241 0.14831285 -3.7537863 8.6000004
-18.475819 0.48201829 -3.8515544 10.0705
-18.120516 0.42924631 -3.7691238 10.038417
-10.173211 0.4626554 -3.7797997 9
-1.6516685 0.47493044 -3.6708717 8.5205002
-1.452974 0.43766454 -3.7713451 9.0164156
1.1439476 0.43861246 -3.7197104 8.4926453
1.2231246 0.401728 -3.6848011 8.0088339
-18.60437 0.88740468 -3.8042731 11.0235
-10.164538 0.84970468 -3.768348 10
-1.6332469 0.89813793 -3.6042356 10
-1.4607997 0.70604378 -3.7686136 10.168859
1.1396956 0.74660748 -3.6897287 9.9560194
1.216359 0.79417002 -3.6547084 10.085751
-18.54776 0.95635188 -3.7264326 11.071125
-10.180563 0.94716501 -3.8056786 10.03475
-1.6354256 0.91381073 -3.8530817 10
-1.4723942 1.0247672 -3.7510848 11.765388
1.1132312 1.015903 -3.7247674 11.342593
-18.612801 1.3317376 -3.807097 12.0235
-18.552303 1.4029906 -3.7242343 12.071125
-10.206855 1.2271378 -3.8441823 11
-10.192194 1.2722548 -3.744745 11.011666
-1.5379139 1.3643985 -3.7260017 12.668066
-1.4898463 1.3353338 -3.7609005 12.83669
1.1059206 1.3327278 -3.6979742 12.584044
-16.802572 1.6182033 -3.6825905 13.068
-16.713804 1.6075189 -3.7912304 13.043625
-15.640258 1.6619912 -3.6411395 13.019501
-15.284096 1.6616877 -3.7943139 13.0185
-14.801032 1.5683917 -3.6779165 12.514626
-14.49062 1.6015329 -3.7903531 12.513938
-14.239649 1.6176074 -3.71735 12.763313
-13.957863 1.5970689 -3.7545967 12.01075
-10.223883 1.6117536 -3.6384439 12
-1.5690807 1.594977 -3.7463951 13.143643
0.89416265 1.6217325 -3.7489862 12
1.1130722 1.5962168 -3.7241161 12.825732
-12.787861 1.8831457 -3.7877743 12.035
-9.7175503 1.9616009 -3.7636814 13.007563
-9.2456932 1.8986752 -3.7797461 14.057
-7.2735786 2.0906734 -3.7136841 15.0485
-1.6402698 1.8826832 -3.7127316 13.6685
0.88586068 1.9169902 -3.6699619 13
1.1001159 1.9430523 -3.7394016 13.26975
-8.5435658 2.139092 -3.809016 14.033
-8.2859812 2.1352684 -3.8498421 14.367749
-7.7335715 2.1270435 -3.7241812 15.04675
-7.3655996 2.1719573 -3.8585982 15.041
-7.1261001 2.1785338 -3.8358428 15.030501
-6.758688 2.1701341 -3.8533082 15.04225
-6.3134646 2.1539662 -3.7119169 15.025249
-6.1519852 2.1380031 -3.7339759 15.04375
-5.9149175 2.1891203 -3.7664928 15.022
-3.472847 2.2742958 -3.7109458 15.011
-2.9763906 2.3813748 -3.6979132 15.045
-2.409745 2.2276998 -3.733588 15.0075
-1.7013577 2.1702595 -3.6788666 13.512751
-1.4753197 2.3751204 -3.8965802 15.047
-0.036065578 2.2109716 -3.8455033 14.0385
0.11183405 2.1948724 -3.8710566 14.04
0.70531356 2.1953664 -3.7430425 14.04
1.0516595 2.2354758 -3.7454071 14
-1.6056806 2.4582381 -3.7571309 15
1.0126078 2.543432 -3.6315885 15
2.7843726 2.4592803 -3.8755894 14.0105
-18.095078 -0.42270261 -3.3432965 8.0235004
-4.0645914 0.23595691 -3.4604669 8.0227509
-1.5803018 0.25836539 -3.4283965 8.0950003
-1.4679906 0.24307273 -3.4202976 8.1610355
1.1296717 0.18971995 -3.4778731 9.0853748
1.2267598 0.25385481 -3.4825282 9.6702499
-18.526249 0.53686082 -3.3396382 10
-18.13726 0.43536076 -3.3571606 10.047251
-10.172087 0.44270134 -3.4398773 9
-1.5797194 0.41642329 -3.4113071 8.669137
-1.4675121 0.43406057 -3.4545906 9.1982231
1.1598275 0.45083809 -3.456609 8.8176947
1.2179196 0.47906402 -3.4892962 9.5567923
-18.652798 0.87634325 -3.5534711 11.024
-18.528076 0.89509994 -3.3977518 11.0715
-10.166377 0.82499081 -3.4915199 10
-1.5898452 0.74542803 -3.4016409 10.71201
-1.4742453 0.7667951 -3.4429779 10.923167
1.1671424 0.70536876 -3.4588919 10.021438
1.2197566 0.81619406 -3.5091999 10.447833
-18.559807 0.94510287 -3.3501496 11.035749
-1.6167372 1.0285157 -3.4179916 12.037436
-1.4734939 1.0124892 -3.4391553 11.962915
1.1574179 1.0122014 -3.4794123 11.286262
1.2215729 1.0021346 -3.443897 13.003124
-18.670193 1.3171217 -3.5618024 12.024
-18.560669 1.3346672 -3.3742967 12.0715
-10.209679 1.2141807 -3.4945292 11
-1.8042314 1.268519 -3.5341959 13.5125
-1.5859575 1.3637952 -3.4298975 13.300565
-1.4758899 1.4458623 -3.343267 12.047
1.1473391 1.2800496 -3.4827399 11.4346
1.2521284 1.2754922 -3.5105896 14.17
-17.283903 1.5983193 -3.4019237 13.021626
-17.02841 1.6081282 -3.4313018 13.052834
-16.133137 1.6533166 -3.3356051 13.021
-15.255335 1.6210577 -3.3451338 13.0175
-14.947482 1.6413466 -3.4800339 13.017166
-14.642757 1.6175723 -3.4988523 13.0145
-14.342722 1.6726342 -3.4581444 13.513375
-13.621819 1.6185403 -3.3925157 12.00925
-13.310171 1.6168076 -3.3947413 12.50875
-12.790504 1.6221336 -3.5636256 12.5075
-4.6748481 1.7367548 -3.3228426 13.169
-1.6322501 1.7133052 -3.4257202 13.6
1.1449912 1.564122 -3.5578678 13.269
-12.947055 1.8836474 -3.3498044 12.036
-9.8469734 1.9495587 -3.4843159 13
-8.7178936 2.0395103 -3.4556565 15.0515
-8.0052719 2.0527554 -3.352798 15.0525
-4.1237922 1.8079892 -3.3944006 13.167749
-3.749588 1.8387364 -3.3082438 13.16675
-1.5645964 1.9128766 -3.392108 14.87625
-1.4979203 2.0352135 -3.3183789 14.047
0.1653055 2.0717139 -3.3940187 14.0415
1.118354 1.8512577 -3.5595486 13.333333
-8.5745478 2.1279109 -3.4534488 14.032438
-8.3088179 2.1506591 -3.5673909 14.02925
-7.3389153 2.1661241 -3.4249468 15.0325
-6.986949 2.1857738 -3.4552965 15.02825
-6.7846742 2.2077796 -3.4141133 15.026668
-5.7624836 2.2197366 -3.5637712 15.0375
-3.5496652 2.2021461 -3.5757267 15.012
-2.3667262 2.2046564 -3.3528671 15.0075
-1.6168354 2.2368526 -3.4813316 14.5235
1.0469564 2.1824927 -3.4493146 14
-1.7175174 2.4166858 -3.5122166 15
-18.141182 -0.41973254 -3.1020484 8.0240002
-16.298553 -0.37395039 -3.1505458 8.0440006
-14.380863 -0.40135828 -3.1223507 8.0124998
-14.022118 -0.31959885 -3.1234989 8.0135002
-13.566471 -0.33363494 -3.1256771 8.0105
-13.328545 -0.37073261 -3.1292794 8.0082493
-14.154362 -0.2142345 -3.1161399 8.0162506
-13.446548 -0.19640538 -3.0522447 8.0144997
-11.594013 0.18049002 -3.0579634 9.0625
-4.0344734 0.23843262 -3.1079493 8.0240002
-3.8631461 0.083884202 -3.0073795 8.026
-1.6161442 0.29627526 -3.2788334 8
-1.4717952 0.29270607 -3.2234826 8.0085001
1.1332467 0.19664595 -3.0399086 9.3348932
-18.155796 0.40956149 -3.1067638 10.024
-1.6282363 0.58563983 -3.2727814 9
-1.4673045 0.51372683 -3.2652874 9.0054998
0.78283179 0.31572682 -3.0013499 8
1.1619083 0.4632926 -3.1211722 8.9089546
1.2339948 0.39035568 -3.2046273 8.0162497
-18.548832 0.87472492 -3.0037503 11.07225
-10.169302 0.81985921 -3.2104547 10
-1.6450903 0.87787259 -3.2884827 10
0.75842869 0.89042091 -3.0136828 10
1.1750821 0.68024516 -3.1353128 10.334617
1.2134148 0.79863346 -3.2556512 11.1705
-1.49418 1.1035049 -3.2667813 11.5055
0.73866141 1.1776959 -3.0095677 11
1.1626562 1.0233188 -3.1539609 11.892924
-18.568436 1.363616 -3.1528294 12.036125
-10.215347 1.2053208 -3.2034426 11
-1.6707184 1.4602731 -3.2751236 12
0.7641753 1.4726651 -3.0322828 12
1.1546153 1.2998391 -3.1698971 12.823644
-17.527754 1.5973616 -3.1661472 13.022583
-17.204826 1.6178792 -3.090435 13.06975
-16.499853 1.6390673 -3.0226245 13.02225
-15.777514 1.6271873 -3.0631323 13.019
-15.430797 1.6381919 -3.1659703 13.01795
-15.147522 1.6119357 -3.2007904 13.016
-14.818261 1.6582229 -3.2413108 13.515125
-14.484573 1.6535544 -3.0998082 13.514
-14.025816 1.6202331 -3.0944095 13.01075
-13.653883 1.6189458 -3.2364817 13.00975
-12.419589 1.614496 -3.290349 13.0065
-4.4853659 1.751353 -3.2848692 13.1685
1.1391075 1.5698454 -3.2087212 12.4346
-13.101254 1.8897032 -3.0265019 12.03675
-9.9532604 1.9441986 -3.2318144 13
-6.7105865 2.031029 -3.071883 14.136584
-3.6203866 2.0277288 -3.0658174 13.165751
-1.6773713 2.0527003 -3.2507725 14
0.16411424 2.0603838 -3.1673603 14.03875
1.1271671 1.8793205 -3.2018385 13.166667
-8.7501717 2.1248558 -3.1599264 14.034333
-8.5681152 2.1347053 -3.1721175 14.031126
-7.4779363 2.1583805 -3.0280282 15.034
-7.1266365 2.1970978 -3.1228039 15.028999
-6.3948994 2.1457763 -3.2841096 15.0255
-4.9279962 2.2546659 -3.1940598 15.0335
-4.2352839 2.2678094 -3.1735473 15.0345
-2.3300414 2.3191574 -3.1224957 15.0465
-1.856797 2.3860507 -3.2313089 15.04
-1.5173861 2.264859 -3.1529088 15.046
-1.3115456 2.3123937 -3.017128 15.024
0.73393375 2.2697318 -3.079484 15.176
1.0388906 2.1551166 -3.1825461 14.4773
1.2456965 2.1713438 -3.20364 14.015
1.0192924 2.4190924 -3.2655005 15.037
1.2262852 2.4625866 -3.1791039 15.015
-14.55986 -0.38586268 -2.8693447 8.0136671
-11.535199 0.090067491 -2.7959061 9.0559998
-6.6421037 0.11813725 -2.8188715 8.0585003
-3.7562704 0.24300727 -2.7020464 8.0237503
-1.4608591 0.17501602 -2.883023 8.0112495
1.1533643 0.23013012 -2.8555596 9.666667
-18.054749 0.44039106 -2.9646745 10.0715
-4.1489749 0.57601655 -2.9274533 10.0275
-3.7791777 0.42623383 -2.7419794 9.0172501
-1.4604478 0.31040877 -2.7846813 8.0107498
1.1562563 0.46572056 -2.8442373 8.7936058
1.224666 0.37291899 -2.8817358 8.0078335
-18.58366 0.87795115 -2.8124714 11.0725
-10.178133 0.81532842 -2.91995 10
0.77798712 0.60202396 -2.9957147 9
1.1572506 0.73668456 -2.8412492 10.42025
1.2060331 0.63589513 -2.8316352 9
-10.223465 1.1973641 -2.9079928 11
1.1604106 1.0057482 -2.9075909 11.639584
-18.584581 1.3452411 -2.8015914 12.07275
1.142873 1.3162867 -2.8265347 12.191767
-17.904613 1.6089805 -2.8636055 13.024
-17.470427 1.6013551 -2.9206343 12.0415
-17.366518 1.6080412 -2.843276 13.0705
-16.151794 1.6656744 -2.8118367 13.02125
-15.741738 1.6431251 -2.8636513 12.350166
-15.369112 1.6577108 -2.8128071 11.01
-15.197047 1.6999631 -2.8671923 14.018625
-14.85493 1.6603194 -2.8580284 13.6825
-14.52792 1.6055481 -2.7574353 13.01225
-14.258705 1.6048803 -2.8847022 13.0115
-13.620972 1.6026219 -2.8057423 13.00975
-13.261524 1.6075122 -2.978981 13.00875
-10.299495 1.5845219 -2.8006744 12
-9.1446562 1.7435873 -2.7497501 11.179
-8.8308353 1.748068 -2.7287979 11.1785
-7.8864374 1.7392877 -2.9735327 11.177
-7.5652275 1.746951 -2.9657869 11.1765
1.1445595 1.6543798 -2.8946865 12.833333
-11.602853 1.9619249 -2.9230928 15.057
-10.053 1.9404955 -2.9197555 13
-8.3059807 1.8365023 -2.7038803 11.1795
-8.0516367 1.8833708 -2.7016859 11.147
-7.6542959 1.8723752 -2.8325105 14.1765
-7.4024258 1.8634459 -2.8446739 12.66
-7.0739069 1.9013696 -2.9802809 11.1455
-6.8974514 1.937548 -2.7119064 11.144
-6.5653586 1.9401777 -2.73456 11.1435
-6.2681417 1.9938223 -2.9100273 12.657749
-5.8993692 1.9420366 -2.7220726 11.1425
1.0976201 1.9848483 -2.7866514 13.768312
-8.855443 2.1233239 -2.7012558 14.03325
-7.6355424 2.1737239 -2.7888513 15.035
-7.2808132 2.1942892 -2.8391879 15.030125
-5.1938329 2.1367328 -2.837544 14.169
-3.500792 2.2954774 -2.8356919 15.0305
-1.9291188 2.2543116 -2.8238039 15.033834
-1.534076 2.1813505 -2.7240038 15.0455
-1.0036871 2.1157908 -2.7017055 15.04525
-0.5948447 2.2125385 -2.7050076 15.04
0.60292017 2.2994838 -2.8367605 15.0395
1.0606806 2.2104735 -2.8735983 14.617571
-18.066319 -0.37465182 -2.4681315 8.0725002
-14.522121 -0.3906911 -2.5344539 8.0124998
-11.567135 0.17060794 -2.5845025 9.0629997
-6.9174852 0.007965602 -2.4275956 8.1739998
-4.0429873 0.24933273 -2.615782 9.0284996
-3.8536696 0.15018545 -2.6593161 8.456214
-3.338994 0.19335409 -2.5684736 8.0240002
-3.0806212 0.27045727 -2.4691381 8.0240002
-1.6544702 0.27789235 -2.4301052 8.008625
1.1259108 0.20745645 -2.5748308 9.8045006
-18.523975 0.5798682 -2.60396 10.0715
-18.124594 0.44968042 -2.5306304 10.072583
-6.8478065 0.42661291 -2.6406016 9.0300007
-3.8456755 0.3373864 -2.6795902 8.6125927
-3.3254333 0.30930951 -2.5977659 8.0480003
-1.6007614 0.35289434 -2.4051948 8.1916666
-1.443841 0.4326379 -2.6657808 9.0065002
-0.55358601 0.3360368 -2.4192648 8.0255003
1.1422179 0.43139437 -2.5144145 8.618227
1.258882 0.40160614 -2.5593319 8.00875
-18.587303 0.86512983 -2.551271 11.073
-10.185831 0.81230426 -2.6389885 10
-1.6358377 0.76183653 -2.4387932 11.145
-1.4735949 0.73169887 -2.5266008 10.75375
1.1542724 0.72612357 -2.536844 10.141256
1.2093638 0.64094794 -2.6351829 9
-10.235508 1.1901822 -2.640476 11
-1.6343261 1.0766013 -2.4098861 12.239166
-1.4747546 0.95130193 -2.6794603 12
1.1491361 1.0232099 -2.5476651 11.29475
1.3403766 0.97849226 -2.6798801 10.0145
-18.651924 1.3172708 -2.5477476 12.05
-18.598049 1.3613896 -2.4115615 12.07375
-1.6583214 1.3269951 -2.410856 13.409774
-1.4672376 1.3076738 -2.4671416 12.0435
-1.0202247 1.3750594 -2.4052775 13.502
1.1448338 1.3118795 -2.5365243 12.272532
1.3099685 1.2369195 -2.5897436 11.0145
-18.057861 1.5999835 -2.5752211 11.0135
-17.741482 1.5974573 -2.4895399 13.071875
-17.489716 1.6055622 -2.6941447 13.071
-15.557403 1.7014465 -2.5323217 14.035667
-15.289786 1.6947303 -2.6273847 14.0185
-14.778921 1.6017218 -2.598433 13.013
-14.254362 1.670658 -2.4818428 13.51475
-14.023338 1.6772516 -2.6221678 13.514
-13.534983 1.7558105 -2.4008164 14.0155
-13.334059 1.7694986 -2.5387568 14.01475
-13.135716 1.7863543 -2.6855407 14.014
-8.2128496 1.755191 -2.651123 11.1775
-7.9080925 1.7563213 -2.5795345 11.177
-7.5971804 1.7617172 -2.5417805 11.1765
-1.6732123 1.6544557 -2.414665 14.083334
1.1242942 1.6430273 -2.5704119 12.8035
-13.636542 1.8664588 -2.4171724 14.066
-13.209258 1.8916326 -2.6904774 12.0375
-13.188899 1.9466381 -2.6744421 12.0385
-12.175892 1.9412481 -2.414288 15.0605
-10.12771 1.9382806 -2.6703947 13
-8.6443043 1.8760864 -2.5378847 11.148
-8.3067236 1.876738 -2.5944853 11.1475
-7.9714818 1.8454444 -2.6872025 11.179
-7.5747781 1.8859253 -2.5748158 11.161751
-6.2207475 1.9716289 -2.4157543 11.097
-5.8560658 1.9854767 -2.4328642 11.115499
-5.4807682 2.0023594 -2.4005413 11.134
-5.0824642 2.0036612 -2.5547733 11.09525
-4.590765 2.0157094 -2.5706482 11.0945
-4.266366 2.023834 -2.5734825 11.094
-3.9398284 2.037998 -2.6304684 11.0935
-3.4477572 2.0501039 -2.607481 11.092751
-2.6312726 2.0693758 -2.5276184 11.0915
-1.6917481 1.9045842 -2.4573233 14.018
-1.0926819 1.8339207 -2.4022179 14
1.1306571 1.9845921 -2.5581353 13.805554
-8.9265842 2.1040635 -2.5743461 14.034625
-7.5143828 2.1663241 -2.6558816 15.03275
-7.389782 2.1921766 -2.6146436 15.031
-5.63449 2.2187498 -2.6807399 15.0585
-4.9216971 2.1422117 -2.6458201 14.167999
-4.5933504 2.17764 -2.5575767 14.167
-3.5762577 2.2809668 -2.4639559 15.0285
-2.7148495 2.1106985 -2.4633985 13.1625
-1.5523512 2.1191738 -2.4181051 15
-1.0478357 2.1581047 -2.6296644 15
-0.78401142 2.1715996 -2.6385729 15.017917
-0.46930599 2.1778872 -2.6197472 15.017792
-0.18554778 2.1898947 -2.6012652 15.017041
0.13220413 2.2004893 -2.5768054 15.029834
0.48577157 2.2397344 -2.5726066 15.03425
0.62265491 2.2477088 -2.5895247 15.0275
0.98362064 2.2810693 -2.5269444 15.02875
2.4907393 2.4379175 -2.5014849 15.01
-18.394337 -0.34366885 -2.1544662 8.0740004
-15.257885 -0.30774173 -2.1003122 8.0200005
-14.912094 -0.33456933 -2.3143849 8.0184994
-14.498202 -0.31106812 -2.2311952 8.0179996
-14.317038 -0.36253792 -2.1159916 8.0151253
-14.031591 -0.33994871 -2.1255798 8.0109997
-13.349254 -0.33648273 -2.1293707 8.0080004
-15.373431 -0.27592999 -2.133235 8.0214996
-14.886664 -0.2326768 -2.1514764 8.0194998
-11.551811 0.1442996 -2.1975427 9.0611248
-6.7315063 0.048039496 -2.2959683 8.1097498
-6.0009823 0.10894755 -2.3000154 8.0404997
-5.174551 0.29132289 -2.1930778 9.0334997
-4.652483 0.19813894 -2.2302814 8.5453749
-4.3574829 0.21828657 -2.2476113 8.0559998
-4.1716466 0.16177216 -2.1648548 8.53125
-3.8241489 0.19177142 -2.1925225 8.2921257
-3.5118308 0.24310918 -2.2013333 8.1461506
-1.5839882 0.28298441 -2.3781724 8.0090723
-1.3711843 0.27061224 -2.3188589 8.0132246
-1.0288116 0.28055224 -2.3178754 8
-0.78631151 0.29571038 -2.3159809 8
-0.53314847 0.18991953 -2.2260692 8.9050684
1.1196976 0.16837099 -2.2306547 9.4583549
-18.428787 0.42984623 -2.1904979 10.0735
-10.214012 0.4610664 -2.2383668 9
-5.8109069 0.39308172 -2.2450542 9.0319376
-5.4653168 0.37482467 -2.2238905 9.0324173
-5.2469535 0.41459689 -2.2469733 9.0274172
-5.0179 0.46184665 -2.2613893 9.4302006
-4.5892329 0.40857863 -2.2216842 9.0274162
-4.2677636 0.41478422 -2.2122304 9.02425
-4.1423717 0.35613254 -2.1980522 8.7273836
-3.8268976 0.36687133 -2.1937075 8.7752495
-3.4885571 0.35192785 -2.2005866 8.611042
-1.5992821 0.44940472 -2.3586404 8.7865438
-1.3869146 0.41769984 -2.3132451 8.6706161
-1.0263767 0.4843269 -2.3182383 8.7529688
-0.73311442 0.49043727 -2.2741995 8.8376036
-0.5218758 0.43380165 -2.2407315 8.9357767
1.1249346 0.46381399 -2.2284594 9.054903
-18.620808 0.85555905 -2.323895 11
-10.208353 0.85361087 -2.147722 10
-10.192513 0.80816358 -2.3413973 10
-5.0668411 0.62995678 -2.3356829 10.02725
-2.0333941 0.81256407 -2.3049943 10.67575
-1.6164331 0.71376067 -2.3848779 10.555952
-1.4063224 0.71456224 -2.3157151 10.427451
-0.99523467 0.77952236 -2.2920928 10.880728
-0.7422986 0.75055301 -2.303385 11.104338
-0.53293973 0.73741877 -2.2739329 11.25641
1.1378645 0.73645765 -2.234304 10.152965
-18.588104 0.92582035 -2.2775102 11.074
-10.240304 1.1832978 -2.3507981 11
-2.1420598 0.927104 -2.2942979 11.009
-2.0455616 1.0630131 -2.3290765 11.508
-1.5799786 0.96992487 -2.3614089 11.6875
-1.4094388 0.99798393 -2.3122118 12.026237
-0.99924392 0.96539754 -2.3029435 11.507741
-0.72846597 1.0081569 -2.3085196 11.859781
-0.55091584 1.0092145 -2.2950559 11.786571
1.1311872 1.0269474 -2.2709262 12.317271
-18.61985 1.3628588 -2.3541312 12.035999
-10.263352 1.2246583 -2.1060398 11
-2.0167103 1.214649 -2.3543682 12.0075
-1.5951315 1.3057777 -2.3555696 12.92143
-1.4242414 1.3139889 -2.3159337 12.836948
-1.0439713 1.3244336 -2.3324201 12.538089
-0.71692723 1.2911282 -2.3080425 12.426824
-0.56009722 1.317165 -2.2883949 12.917084
1.1200157 1.2832116 -2.2557011 11.455611
-18.469477 1.6714555 -2.2560177 13
-17.900181 1.5850563 -2.3398619 13.0725
-17.490139 1.6303658 -2.2680531 12.0425
-16.955936 1.5886744 -2.2821064 13.0715
-16.600918 1.6173971 -2.1962204 11.012
-15.944732 1.6934483 -2.2595701 14.0215
-15.735887 1.6854869 -2.1838362 13.033417
-15.284988 1.6807578 -2.2130814 11.0105
-14.971306 1.6825368 -2.2938499 11.01
-14.539282 1.6722763 -2.3545439 13.515625
-13.893855 1.7349917 -2.1635721 14.349917
-13.716717 1.6912667 -2.1289537 14.013583
-13.465001 1.6440549 -2.2419386 13.511999
-1.8220696 1.5973209 -2.3172679 13
-1.6146262 1.5612824 -2.3689337 13.25
-1.3911639 1.6132098 -2.3369038 13.396001
-1.0555285 1.5495763 -2.3363972 13.173625
-0.69947058 1.5765021 -2.3499036 13.146394
-0.57636219 1.6187444 -2.3269351 13.25
1.1088921 1.6618053 -2.2799942 12.844501
-10.121473 1.9120107 -2.3556275 14.02975
-9.2173767 1.878118 -2.2571559 11.14425
-8.7980947 1.8959628 -2.1835842 11.143
-8.4803009 1.9040196 -2.2721939 11.1465
-8.1477032 1.9044732 -2.3094025 11.146
-7.9625287 1.9214944 -2.2663822 11.14025
-7.7369895 1.9443474 -2.1159763 11.137
-7.4472342 1.9475652 -2.2659864 11.13675
-7.117528 1.958801 -2.2888203 11.13625
-6.7837238 1.9691305 -2.2935553 11.13575
-6.4500294 1.9796127 -2.2924042 11.13525
-5.2419086 1.9988461 -2.2539659 11.13825
-5.0078015 2.0057797 -2.1762426 11.139
-4.3005862 2.0196726 -2.3025668 11.138
-3.8503861 2.0354939 -2.2976532 11.135625
-3.5602789 2.06445 -2.1694775 11.131
-1.8107295 1.8681535 -2.3299398 14
-1.5840862 1.9660034 -2.2424068 14.609301
-1.3767326 1.8291746 -2.3452427 14.136812
-1.0400052 1.8387017 -2.3294451 14
-0.73725605 1.8406321 -2.3430994 14
-0.55400276 1.8385544 -2.3390028 14.014167
0.81118059 2.0098765 -2.3539095 11.1335
1.0729035 1.9606034 -2.2916567 14.011167
-9.0310717 2.1002095 -2.2225201 14.035749
-8.9893122 2.1238413 -2.363348 14.03425
-8.4888363 2.2012706 -2.2603831 15.064
-7.6136522 2.1668615 -2.2760358 15.033501
-5.3155646 2.1372366 -2.1081419 15.16525
-4.3390803 2.1805401 -2.3398504 14.166
-2.7714415 2.3118708 -2.2545133 14.159
-1.6908325 2.1999454 -2.2773423 14.08
0.88695133 2.2286429 -2.3692532 15.038
0.99084568 2.2512193 -2.3148425 15.035749
-18.178352 -0.37748241 -1.9717669 8.0734997
-14.222557 -0.34044832 -2.072444 8.0115004
-13.377483 -0.35552552 -2.0769038 8.0119991
-15.331568 -0.242852 -1.9000077 8.0209999
-13.271745 -0.20747808 -2.0851822 8.0159998
-11.278055 -0.1691117 -2.0963283 8.0559998
-11.578754 0.15677673 -1.8964847 9.0619373
-3.7032928 0.27291903 -1.9218365 8.0444994
1.0559633 0.074254826 -1.9288635 8.5830002
-18.116974 0.51128995 -2.0105088 10.073
-17.832539 0.40712348 -1.9991393 10.073
-10.215556 0.46188766 -1.9707043 9
-10.180324 0.49057198 -1.807335 9.0389996
-7.452774 0.4166908 -1.8754637 9.0352497
-6.9515495 0.41543421 -1.8843163 9.0332499
-4.1461048 0.48038739 -2.0152326 10.5
-0.60659957 0.38330063 -1.8243361 8.4322138
-0.49413013 0.31004369 -1.9663689 8.04175
1.0602717 0.44428572 -1.9080541 8.6707573
-10.215619 0.82997864 -1.9864542 10
-4.1421213 0.72868019 -1.9879366 11.416789
1.0385454 0.77647245 -1.9127889 10.936308
-18.606401 0.95855427 -1.9198227 11.073667
-10.24307 1.1769524 -2.0460441 11
0.89534998 1.1369538 -1.9372053 11
1.0295783 1.0465553 -1.8717327 12.315445
-18.618095 1.3824718 -2.0220079 12.073626
-18.591467 1.4245098 -2.0848398 12.073
-10.251485 1.2224084 -1.90795 11
-10.161033 1.2180394 -1.8068112 11.039
0.88961685 1.372252 -1.8959548 12
1.0227413 1.3281344 -1.9292096 13.001862
-18.168377 1.5409784 -2.025795 11.01425
-17.984203 1.6017914 -2.0332904 12.04325
-17.616272 1.625807 -1.9665194 12.043375
-17.346754 1.7084725 -1.9866457 13.071
-17.0979 1.6300312 -1.9774885 11.012
-16.362812 1.670653 -1.8292408 11.01225
-16.096569 1.6948631 -1.9555223 14.046
-15.79801 1.7033576 -1.9991946 14.06925
-15.029182 1.7257527 -1.9945292 14.02075
-14.62043 1.7460523 -1.8720574 14.01925
-14.220314 1.7194704 -1.965773 14.267563
-14.066936 1.6825303 -1.9177896 14.014834
-13.668202 1.6870161 -1.9266752 14.013083
-13.343393 1.6213977 -1.9785714 13.011126
-12.748233 1.5854878 -1.9271364 13.01
-12.519627 1.6377037 -1.9609871 13.009125
0.88007259 1.6023601 -1.8220348 13
1.0492646 1.6467053 -1.9012375 13.252416
-12.837677 1.8321728 -1.8981848 12.039
-12.578671 1.9392945 -1.9489994 15.0635
-10.410238 1.9108633 -1.8962007 15.0625
-10.146194 1.9278765 -2.0179248 13
-9.4029627 1.8918642 -2.0042877 11.1395
-9.0550566 1.942187 -2.0034993 11.7192
-8.7287979 1.9168785 -1.9935942 11.13625
-8.5506306 1.9206529 -1.9079123 11.13575
-8.0366106 1.9422534 -2.0256424 11.137
-7.7110376 1.9541844 -2.0508785 11.1365
-6.7904015 1.9848604 -2.0524902 11.135
-6.4648018 1.9658566 -1.9122833 11.141167
-6.1592488 1.9565871 -1.9109168 11.144
-5.9308767 2.0047035 -2.0178947 11.09675
-5.52601 2.009361 -2.0386755 11.124167
-5.1462998 2.0262649 -2.0517616 11.0955
-4.9932671 2.0468831 -1.9126511 11.13225
-4.7217083 2.0439367 -2.0731859 11.113625
-4.2074866 2.0509448 -2.0283756 11.094
-4.1153684 2.0702963 -1.9969559 11.1315
-3.8428516 2.0703292 -1.9742851 11.112249
-3.5250793 2.0805473 -1.9354382 11.11175
-3.2556024 2.0725689 -1.9993763 11.1115
-2.7651453 2.0792816 -1.8795166 11.12975
-2.6572175 2.0855565 -1.8061371 11.0915
-1.6185269 2.032032 -2.0523264 15.04825
-1.3762574 2.0684605 -2.0002432 15.025
0.12327349 2.0484991 -1.9963241 15.0405
0.86584711 1.8441364 -1.8121328 14
1.0028806 1.985054 -1.9413865 14.428572
1.2304466 1.9960501 -1.9816179 11.13275
-9.1633406 2.141279 -1.8894359 14.03825
-7.8425598 2.1666801 -1.8423839 15.035749
-7.6939449 2.1674652 -1.9068967 15.03425
-4.1119699 2.12831 -1.8788319 14.165
-3.4557042 2.2282658 -1.9644907 14.593
1.040813 2.1730065 -1.9533371 15.012
-10.013898 -0.12517455 -1.609086 8.0504999
-11.592776 0.12308881 -1.587853 9.0620003
-5.8675165 0.092734516 -1.6531301 8.0380001
-5.6532764 0.13822967 -1.6451075 8.0437498
-4.0979929 0.17668939 -1.5651727 8.0434494
-3.7869778 0.19208376 -1.6180378 8.0396671
-0.41341734 0.2768105 -1.7372901 8.0421247
1.0479467 0.11457571 -1.6399987 9.1999998
-18.132631 0.5046047 -1.6256005 10.073667
-10.112314 0.4618054 -1.6862582 9
-7.4134459 0.41535372 -1.648772 9.0360003
-6.9127164 0.41477886 -1.659299 9.0340004
-4.146574 0.4914569 -1.6636473 10.666667
-0.69293827 0.3623144 -1.7005465 8.3369274
-0.50025272 0.35600626 -1.7329707 8.2228613
-0.18136618 0.37474629 -1.6985216 8.0205002
1.0645754 0.46081886 -1.6506677 8.7995872
-10.112467 0.82405114 -1.674314 10
-4.1065698 0.77676171 -1.5973969 11.798805
1.0432458 0.7535646 -1.6630964 10.538999
1.475198 0.87888497 -1.5237436 9.132
-18.641483 0.99464172 -1.5823913 11.0745
-10.115785 1.1612058 -1.715919 11
1.0304645 1.041326 -1.6857147 11.933471
-18.636374 1.4148518 -1.6474191 12.073916
-10.13815 1.2119495 -1.6377983 11
0.89658523 1.340775 -1.6579661 12
1.0301843 1.3353059 -1.654752 12.45
-18.660988 1.507887 -1.581316 11.0155
-18.163475 1.5809779 -1.6223526 11.014
-17.891449 1.6208256 -1.6553761 11.700583
-17.614141 1.6648228 -1.6863987 12.0425
-16.812469 1.6688157 -1.5748539 11.01225
-16.64473 1.6686153 -1.6850591 11.011
-16.365538 1.6698173 -1.7323802 12.540751
-16.194637 1.7001263 -1.5824275 14.071
-15.425919 1.7174544 -1.7079563 14.02225
-15.050303 1.7252126 -1.5053973 14.021
-14.780606 1.7022047 -1.6039996 14.019876
-14.543135 1.6941955 -1.6804535 14.227201
-14.318459 1.6604924 -1.6799722 13.3475
-13.981377 1.6790326 -1.7656908 14.013
-13.674946 1.6429142 -1.660122 13.011167
-13.346162 1.6702909 -1.6661291 12.056
-13.113096 1.6661894 -1.7101922 12.0795
-12.775953 1.7193137 -1.6630223 12.57825
-12.484661 1.6765926 -1.7061286 14.008125
-12.047064 1.6711918 -1.5155134 14.00675
-10.151675 1.5425571 -1.6346594 12
1.0152625 1.6114155 -1.690275 13.285714
1.4787996 1.5047491 -1.6407728 10.132
-13.274279 1.9132349 -1.7449484 12.04
-10.154209 1.9198287 -1.6839979 13
-9.3589191 1.8403867 -1.7044377 11.14875
-9.2807951 1.917787 -1.570631 11.1385
-8.8874884 1.9234525 -1.5835794 11.137166
-8.5650206 1.9314485 -1.592467 11.136666
-7.9871202 1.9434198 -1.5205097 11.1365
-7.6568456 1.9513271 -1.5859032 11.1355
-7.3599505 1.9614065 -1.6261175 11.137625
-6.992393 1.9831777 -1.6918211 11.13375
-6.6880555 1.9685732 -1.6421738 11.1375
-6.4266143 1.9722916 -1.6350461 12.479417
-6.1194715 2.0155997 -1.6061373 11.123813
-5.8693976 2.0287614 -1.5333157 11.0965
-5.5600576 2.0431418 -1.6273422 11.096
-5.011199 2.04334 -1.5652422 11.133334
-4.6534443 2.0697401 -1.6429672 11.112249
-4.3331146 2.0544279 -1.5763512 11.1375
-4.0562582 2.0764067 -1.7002583 11.1205
-3.7760735 2.0817449 -1.6556616 11.1335
-3.4698422 2.0933325 -1.6287918 11.119583
-3.1515858 2.0992968 -1.766777 11.13
1.0001848 1.933778 -1.7167938 14.375
-14.217335 2.1150937 -1.6108637 13.01
-9.1817513 2.1012549 -1.7638385 14
-7.9122858 2.1908648 -1.5208285 15.038501
-6.7013025 2.1147606 -1.7579961 15.0655
-4.0495329 2.1355302 -1.5251155 15.16
-3.7334967 2.1067739 -1.5211124 11.1285
-2.765584 2.113637 -1.6538429 11.1105
0.98274946 2.1318989 -1.7084914 15
-16.24049 -0.30640918 -1.2377448 8.0719995
-11.60976 0.15032658 -1.384752 9.0640011
-1.5273633 0.28068009 -1.3666416 8.0128002
-1.4779996 0.28760231 -1.3186374 8.0147495
-0.66422647 0.023497945 -1.2311004 8.0139999
1.038389 0.17493221 -1.3148531 10.028955
-18.154486 0.51933408 -1.2986563 10.074084
-10.231228 0.49408892 -1.3584567 9
-1.5334991 0.4202697 -1.3021917 9.0162897
-1.4716285 0.40718508 -1.3232367 9.0061874
-0.7419737 0.47211376 -1.4777719 10.0115
1.0603458 0.44512957 -1.3399745 9.1282339
1.2313445 0.55111337 -1.2229853 8.5139999
-10.185458 0.82700849 -1.381784 10
-4.1054578 0.78912932 -1.3143328 11.809083
-1.5315981 0.71699816 -1.3065671 11.231211
-1.4894371 0.69196802 -1.3292903 11.313812
1.0540379 0.7615028 -1.3412017 10.535709
-18.167812 0.92744231 -1.3496006 11.07375
-10.206878 1.1641908 -1.4471662 11
-4.131434 0.9288764 -1.4663903 12.0275
-1.5447223 1.0385447 -1.3107806 12.328736
-1.4927152 1.0321681 -1.3465668 13.504
1.0233972 1.0468124 -1.3725649 11.694445
1.2095804 0.98647547 -1.2373786 10.514
-18.681053 1.4198765 -1.2264843 12.07525
-10.218109 1.218334 -1.3435937 11
-1.5599886 1.3210999 -1.3385277 13.459583
1.0234632 1.3168279 -1.3732948 12.668416
-17.805664 1.6957946 -1.2425265 13.07325
-17.62891 1.645483 -1.2582929 12.030874
-17.374607 1.6659731 -1.3778625 11.01225
-16.638803 1.68708 -1.3260775 14.0725
-16.479113 1.6744549 -1.4051938 14.072
-16.04545 1.6908454 -1.2238636 12.014
-15.775925 1.7031446 -1.3954754 12.699333
-15.014524 1.7400169 -1.2464304 15.0215
-14.787067 1.7476555 -1.3777518 15.036167
-14.501495 1.7269039 -1.3009746 13.084499
-14.228508 1.658528 -1.3136597 12.0105
-13.919248 1.691934 -1.4017555 12.724917
-13.546035 1.6794009 -1.3146501 14.0115
-13.308344 1.6752479 -1.3972974 14.01075
-12.673924 1.7350024 -1.280694 13.389
-12.45972 1.7074271 -1.3566433 14.678166
-12.298581 1.6778497 -1.477807 14.0075
-7.7916112 1.796669 -1.2113314 12.1765
-1.614291 1.5466918 -1.3180448 13.76225
0.87099028 1.7367902 -1.2886081 14
1.0069304 1.6089389 -1.4071394 13.483335
-13.337282 1.9177521 -1.4028285 12.040751
-12.926302 1.8084924 -1.2372875 11.1445
-12.697204 1.8142155 -1.4729686 15.01425
-12.515927 1.8099059 -1.3088589 11.144333
-12.258886 1.8218696 -1.3797312 11.14375
-10.162437 1.9152033 -1.4037174 13
-9.1922789 2.0906692 -1.4731014 14
-7.9476275 1.9105864 -1.31955 11.146999
-7.5544086 1.9132793 -1.4430943 11.146
-6.9339004 1.9154347 -1.3425341 12.175
-6.2026062 1.9945165 -1.4295712 11.1405
-5.7234015 2.0106692 -1.4973068 11.13975
-5.1229362 2.041939 -1.4267101 11.132
-4.8304186 2.0443935 -1.2915421 11.13475
-4.6092014 2.0534661 -1.4236412 11.13025
-4.1534948 2.0743318 -1.3254061 11.13
-3.8149126 2.0831378 -1.28866 11.129
-2.725204 2.0974169 -1.425478 11.135
-1.5979798 1.8558245 -1.342786 15
0.99759459 1.9851304 -1.4194905 14.749999
-9.1912975 2.1327043 -1.3668894 14.03975
-7.9200678 2.1716356 -1.3510791 15.03825
-3.4144716 2.1158843 -1.4430847 11.128
-2.8582783 2.1236587 -1.3493929 11.128
-17.881977 -0.31465223 -0.90406561 8.0275002
-17.561195 -0.35558033 -0.9190836 8.026
-17.358627 -0.38724411 -0.93032789 8.0220003
-17.06135 -0.35376391 -0.92430001 8.0246668
-16.679449 -0.38171786 -0.90035439 8.02075
-16.314075 -0.37892103 -0.90317392 8.0200005
-13.378989 -0.36247149 -1.0636506 8.0112505
-14.362944 -0.22085547 -1.1156654 8.0200005
-13.528044 -0.19980323 -1.0699263 8.0089998
-13.37225 -0.20982474 -1.0887713 8.0179996
-11.57873 0.12203979 -1.0370333 8.9652996
-0.80182791 0.28398615 -1.0935457 8.0185003
1.0305339 0.19162843 -1.0976508 10.600271
-10.231853 0.49817967 -1.0329783 9
-1.526721 0.37438735 -0.99109459 8.5474997
-0.67098713 0.3558695 -1.0286908 9
-0.42223829 0.4485251 -1.0072634 10.490284
-0.22287436 0.47736228 -1.0495937 10.018038
1.0429173 0.46080363 -1.0626736 9.1457157
-10.207525 0.79782951 -1.042002 10
-10.197461 0.85781276 -1.0412161 10
-1.5514991 0.8918153 -0.9557277 11.528749
1.0332725 0.74516332 -1.0711921 10.960529
-18.672031 1.0234158 -1.0322876 11.076
-18.13102 0.90699816 -1.0822978 11.0745
-10.24452 1.1627662 -1.0689869 11
-1.5466375 1.0938241 -0.93420458 12.0475
1.0165803 1.0602895 -1.0782466 11.70028
-18.689331 1.4684753 -1.0325167 11.546
-10.221509 1.2194532 -1.0467987 11
-1.5879209 1.3790761 -1.1940908 13.049
0.89366484 1.3823066 -1.161624 12.5
1.0110531 1.3069685 -1.0876223 12.846898
-18.691675 1.512314 -1.0934944 11.0155
-18.122543 1.6352603 -0.92654753 11.516251
-17.872967 1.6724665 -1.0850737 12.043625
-17.557055 1.7015901 -0.95894241 13.0745
-16.641087 1.6533487 -0.91222763 11.0125
-16.356369 1.686975 -1.1314917 13.043499
-16.078156 1.6922783 -1.1528823 12.542
-15.118318 1.7254077 -1.0305922 13.889999
-14.812125 1.7358686 -1.0990334 13.095938
-14.254465 1.7913029 -1.0580168 15.0205
-13.910199 1.7285482 -1.1531742 14.516001
-13.589742 1.7313192 -1.0727446 12.579
-13.333042 1.7484545 -1.0634483 14.037084
-13.1236 1.757055 -1.1094675 13.080626
-12.405988 1.7133752 -0.97819996 13.008
-12.204053 1.7117264 -1.0045214 13.0075
-11.830452 1.784693 -1.1170535 12.00475
-9.8508987 1.7784408 -1.119504 11.1505
-1.5844214 1.5399817 -1.0533919 14.0475
0.8739922 1.6740106 -0.98202419 14
1.0285126 1.6006947 -1.075068 13.669211
-13.427837 1.9138005 -1.0800231 11.59325
-13.029482 1.8029386 -1.1072559 11.14525
-12.625039 1.8149507 -0.93682432 15.067
-12.462384 1.8531791 -0.93175727 13.759833
-12.162996 1.8274293 -1.0581627 11.142625
-11.732323 1.8823243 -1.1088281 13.10475
-11.279182 1.8993149 -0.94022036 15.068
-10.168788 1.911432 -1.111944 13
-9.1475611 1.9889861 -1.0194695 12.57425
-8.422739 1.8903962 -1.0868988 11.1475
-8.2589293 1.9285508 -1.0911064 11.1365
-7.9488587 1.9372739 -1.0842953 11.136
-7.6369028 1.9498767 -1.1069126 11.1355
-7.2764387 1.8121222 -1.1550827 12.1755
-7.1680703 1.9655212 -1.0975094 11.13475
-6.7024856 1.9828169 -1.0921078 11.134
-6.3908081 1.9930872 -1.0678997 11.1335
-5.2123642 2.0356581 -0.95398712 11.1315
-4.3767891 2.0514359 -1.1886272 11.13725
-3.545722 2.0840156 -1.1623821 11.13225
-2.9650283 2.0874043 -0.9707756 11.135
-2.5274627 2.0577216 -0.99170971 11.112749
0.99002677 1.9424957 -1.1568176 14.777779
-9.3055534 2.1492791 -1.0580839 14.040751
-8.0091629 2.1743686 -1.0454974 15
-4.6753745 2.1765506 -0.93582916 15.164499
-2.8688908 2.2206182 -0.98019719 13.075062
-2.6587682 2.1031883 -1.1435509 11.1285
-1.7089314 2.2528329 -1.0245655 14.58825
-17.209896 -0.34847662 -0.88660765 8.0237503
-16.965313 -0.36889476 -0.87546301 8.0200005
-16.696436 -0.35353544 -0.88422126 8.0221663
-16.352434 -0.37241539 -0.8636052 8.019084
-15.997375 -0.34753102 -0.85787034 8.020813
-15.717477 -0.37276232 -0.87347674 8.0183125
-15.542435 -0.30155316 -0.82112503 8.0229998
-14.163878 -0.34219226 -0.80803543 8.0131073
-13.957875 -0.36100146 -0.81497669 8.0122499
-13.685496 -0.35963231 -0.80558419 8.0107498
-13.423815 -0.31435537 -0.65499783 8.0129995
-16.736744 -0.27162722 -0.89765596 8.026
-16.224091 -0.26110473 -0.87545252 8.0249996
-15.908493 -0.28812844 -0.87891197 8.0252495
-15.875069 -0.25382718 -0.87028503 8.02425
-8.1854324 -0.26671028 -0.63786077 8.1747503
-18.574654 0.11291523 -0.73433447 9.0769997
-12.500469 0.1192145 -0.72596455 9.0670004
-11.863993 0.11289304 -0.70482099 9.06425
-11.680663 0.12128279 -0.703197 9.0640001
-8.7242012 0.19209713 -0.62588787 9.0609999
-8.5582409 0.1745401 -0.61301899 9.0574999
-8.2609854 0.1805874 -0.62685227 9.0583744
-7.8163562 0.10488019 -0.60440874 9.1722498
-1.7445776 0.09467341 -0.63178927 9.0349998
-0.78111792 0.1459787 -0.71909815 10.766252
-0.58129698 0.24027304 -0.8326835 13.4173
1.0275255 0.14842688 -0.78455085 10.2
-10.215302 0.5050168 -0.6593225 9
-1.5627586 0.45422056 -0.75937295 9.0089998
-0.45577049 0.41576764 -0.80769598 10.255875
-0.26527172 0.45329201 -0.79548609 9.9573002
1.0819355 0.49296695 -0.72211677 9.0593214
-10.201311 0.86159843 -0.75097966 10
-0.28238362 0.64580476 -0.89044476 14
1.0649883 0.74776989 -0.73107499 10.865009
-18.664501 1.016199 -0.76238823 11.077
-18.154669 0.93140918 -0.83832169 11.0755
-10.252009 1.1635185 -0.83911216 11.0405
1.0504975 1.0318098 -0.73492712 12.224161
-10.214428 1.2237394 -0.7092303 11
-1.6242651 1.4592279 -0.81091189 14.009
1.0293038 1.3439628 -0.74429858 13.062436
-18.465965 1.5354474 -0.88195324 11.015
-18.20466 1.6071739 -0.76079655 11.4168
-17.753328 1.7001641 -0.61726665 13.0755
-16.986927 1.6866767 -0.71242476 12.016251
-16.312601 1.7125562 -0.79446602 14.07375
-16.065401 1.7905931 -0.84272957 14.0715
-15.443408 1.7190046 -0.76289892 13.892583
-15.149179 1.733151 -0.77972031 15.046375
-14.712762 1.6765689 -0.63761997 13.014
-14.618362 1.6839367 -0.71573734 13.415949
-14.233106 1.7599373 -0.76436204 12.749249
-13.85873 1.7696722 -0.78887284 13.082625
-13.619364 1.7354205 -0.79257143 15.017563
-13.385569 1.7296511 -0.60723591 15.013
-13.063011 1.7372137 -0.73071337 13.055167
-12.661849 1.7514733 -0.86907673 12.075874
-10.262951 1.5919135 -0.65466022 12
-9.994976 1.7658925 -0.63064146 11.145
-1.42396 1.5735461 -0.81531906 14.0265
1.0229008 1.6221734 -0.75107831 13.902166
1.2767973 1.7113533 -0.70206451 10.1215
-14.005789 2.0422025 -0.78990173 13.0105
-13.054026 1.8096811 -0.73698235 11.1445
-12.73909 1.8148937 -0.80654526 11.144
-12.330494 1.8231722 -0.68706894 11.143
-12.021912 1.8317857 -0.76247787 11.1425
-11.714052 1.839936 -0.82680702 11.142
-11.301913 1.9043146 -0.88945103 15.069
-10.173323 1.9094416 -0.81935358 13
-9.3453646 2.0994298 -0.89824605 14
-8.8891954 2.0740967 -0.86545038 15.07
-8.5675564 1.8000437 -0.6060791 12.178
-7.0635271 2.0254521 -0.63191891 15.066999
-6.8566141 1.9092976 -0.67323971 15.06925
-6.4860172 2.0364575 -0.89739418 15.0635
-4.7511387 2.0522869 -0.88332939 11.13075
-4.2985187 2.0645061 -0.76270103 11.13
-3.9906752 2.0774302 -0.71583748 11.1295
-2.6536283 2.093926 -0.67710686 11.127
1.0201535 1.9078354 -0.74637222 14.766563
-9.3434649 2.1537752 -0.73543334 14.04175
-8.0158138 2.1691341 -0.7958796 15
-11.863531 -0.34414107 -0.41095924 8.0085001
-12.139668 -0.29012138 -0.42172241 8.0089998
-11.989122 -0.26864699 -0.38030148 8.0129995
-8.6636162 -0.010632113 -0.51648235 8.0500002
-6.8109698 -0.051812142 -0.46516609 8.6715002
-8.7261572 0.16669008 -0.58871579 9.0554371
-8.5327425 0.1661976 -0.56215554 9.0088873
-8.2009315 0.1857546 -0.57081151 8.998167
-7.9337368 0.1795219 -0.55953026 9.0071297
-7.6621532 0.19285336 -0.56712633 9.0172491
-7.3344722 0.20727979 -0.53074038 8.9699926
-7.0456414 0.20729588 -0.53037405 8.904542
-6.7169991 0.2084695 -0.50389403 8.8819609
-6.4226665 0.21776947 -0.49669945 8.9328556
-6.2477736 0.24130456 -0.48962826 8.9704647
-4.9026146 0.25723878 -0.39560699 8.7816248
-4.7425337 0.28839856 -0.46875858 9.15975
-4.4537411 0.21239731 -0.36165309 8.2782497
-3.9586692 0.15471306 -0.34130955 8.0235004
-3.1822748 0.21256123 -0.30978346 8.0284996
-2.5615745 0.19067484 -0.34510374 8.1584997
-2.3449535 0.20066658 -0.31954527 8.158
-1.6831734 0.28785381 -0.42432147 8.9783249
-1.4848762 0.22697601 -0.35013151 9.1111107
